# .PCD v0.7 - Point Cloud Data file format
VERSION 0.7
FIELDS x y z rgb
SIZE 4 4 4 4
TYPE F F F U
COUNT 1 1 1 1
WIDTH 2410
HEIGHT 1
VIEWPOINT 0 0 0 1 0 0 0
POINTS 2410
DATA ascii
199 444 83 1851232
200 444 82 1785440
201 444 82 1785184
186 445 88 2969463
196 445 85 1719646
197 445 83 1785438
198 445 82 1917024
199 445 81 1982817
200 445 80 2114148
201 445 80 2179941
194 446 87 1653853
195 446 85 1719645
192 447 88 1851232
193 447 86 1785438
194 447 85 1785437
190 448 88 2377317
191 448 87 2179938
192 448 85 2048352
193 448 84 1982558
186 449 92 3363955
189 449 87 2706024
190 449 86 2508645
191 449 85 2377058
192 449 83 2245472
188 450 89 3100524
189 450 85 2837609
190 450 84 2640230
191 450 82 2574436
192 450 80 2508642
188 451 88 3166315
189 451 84 3034730
190 451 81 2837608
191 451 80 2771814
187 452 88 3363693
188 452 86 3297900
192 456 68 4218739
202 444 80 1916515
203 444 79 2376810
204 444 79 2837362
169 466 90 5136235
168 467 89 5398894
169 467 89 5464687
166 468 85 5727343
167 468 85 5661808
168 468 84 5727859
169 468 83 5859445
166 470 68 6516860
167 470 68 6451325
179 460 87 4545642
180 460 83 4940399
177 461 87 4676970
176 462 87 5070958
174 463 89 5005165
175 463 85 5334130
173 464 87 5070958
174 464 84 5399923
171 465 88 5070700
172 465 86 5136751
170 466 88 5202028
171 466 85 5268079
170 467 85 5530993
238 552 63 10988460
264 594 79 4487836
265 594 79 4553888
257 599 95 11774408
258 599 94 9738174
258 599 95 9738174
259 599 94 8950457
260 599 92 8360373
260 599 93 8360373
261 599 91 7771574
261 600 96 6126491
262 600 95 5800865
262 600 96 5800865
263 600 93 5605798
263 600 94 5605798
267 593 81 4880544
268 593 81 5273248
269 593 81 5337497
270 593 81 5402002
271 593 81 5532301
277 593 82 5792632
278 593 82 6384510
279 593 82 7371146
280 593 82 8423319
281 593 83 8752026
266 594 79 4751011
267 594 79 5012645
268 594 78 5339812
269 594 78 5470112
270 594 79 5600410
271 594 79 5730967
277 594 80 5727613
278 594 80 5924475
279 594 80 6450560
280 594 80 7502990
281 594 81 8094869
279 595 78 5727355
280 595 78 6779527
281 595 79 7503249
274 597 74 7573170
276 599 78 8626115
282 593 83 8817818
282 594 81 8292247
283 594 81 8094869
284 594 82 7831955
285 594 82 7568783
282 595 79 7766677
218 607 72 6651298
218 610 73 7374249
218 611 73 7439784
218 612 73 7504806
218 614 74 7175582
218 615 74 7043738
218 616 74 7043225
269 604 89 6398163
270 604 89 6661335
271 604 88 6464471
272 604 87 5937099
273 604 87 6391741
274 604 86 6648745
275 604 85 5725071
276 604 85 6448019
270 605 91 5938645
271 605 90 5742293
272 605 89 5675986
273 605 88 6853581
274 605 88 7833540
275 605 87 7568054
276 605 86 6711714
277 605 86 6184340
270 606 92 5611226
271 606 91 5480410
272 606 91 5479640
273 606 90 6526678
274 606 89 7442643
275 606 88 7441358
276 606 88 7243720
273 607 92 6200027
274 607 91 6919642
275 607 90 6919386
276 607 89 6919384
275 608 91 6528222
276 608 90 6528478
277 608 90 6593757
278 608 89 6724827
277 609 91 6202596
278 609 91 6202851
279 610 91 6007009
299 620 98 5418478
300 620 98 5547233
301 620 98 7706320
302 620 98 9931456
303 620 98 10192307
301 621 100 8945072
302 621 100 10381719
336 620 108 6454443
338 620 109 6388894
339 620 109 6323100
340 620 109 6257308
341 620 109 6191515
342 620 109 6388894
343 620 109 6520480
343 620 108 6520480
344 620 108 6586273
345 620 108 6586273
342 621 111 6783652
343 621 111 7178410
346 620 109 6454687
346 620 108 6454687
347 620 108 6125722
348 620 108 5862550
349 620 108 5730964
351 620 109 5599378
352 620 109 5533585
353 620 109 5533585
354 620 109 5665172
403 631 136 6124169
402 632 135 6058633
403 632 135 6058633
404 633 137 6124169
405 633 137 6255240
406 633 137 6189703
403 633 133 6058633
404 634 134 6058633
405 635 134 6189705
133 648 81 5071229
170 700 60 11842752
171 700 58 11908545
170 701 60 11777217
171 701 58 11843010
170 702 61 11711683
171 702 59 11908805
137 716 78 4807325
137 717 78 4742306
137 718 78 4743595
137 719 78 5402296
137 720 79 6783946
137 721 79 8626148
137 722 79 10336764
137 723 80 11192063
137 724 80 11389439
137 725 80 9942005
137 726 81 7968215
138 717 80 4939685
138 718 80 4875180
138 719 80 5336502
138 720 81 6323395
138 721 81 7310287
138 722 81 7705043
138 723 82 7836629
138 724 82 6849734
138 725 82 5665460
138 726 83 4481186
420 719 121 12370631
417 722 121 7963002
218 741 67 10850457
326 783 101 8880513
310 799 98 11895129
309 800 98 12092508
308 801 98 12224094
307 802 98 12421473
306 803 98 12553059
305 804 98 12684645
304 805 98 12816231
289 839 111 14457716
289 839 112 14457716
205 844 107 12754302
206 844 107 13082489
207 845 108 13606774
208 845 107 14066296
209 845 107 14525819
209 846 109 14131323
210 846 108 14460030
211 846 107 14591616
211 847 109 14394754
212 847 109 14394754
213 847 108 14394496
213 848 110 14394239
214 848 109 14196859
215 848 108 13867893
216 848 107 13538670
217 848 107 13078119
216 849 109 13341548
217 849 108 13012326
218 849 107 12748641
218 850 109 12682848
219 850 107 12353882
220 850 106 12156502
219 851 109 12288089
220 851 107 12090965
221 851 106 12024916
220 852 109 12024917
221 852 107 12090452
222 852 106 12090452
221 853 109 11959124
222 853 108 12024659
223 853 106 12222038
223 854 108 12090452
224 854 107 12287831
225 854 106 12550746
224 855 109 12156245
225 855 107 12353624
226 855 106 12551003
225 856 109 12156502
226 856 107 12353881
227 856 106 12616796
227 857 108 12353881
228 857 106 12616796
248 878 105 11765604
249 878 105 11502689
249 879 105 11240032
249 880 106 10911324
249 881 107 10516824
249 886 107 8478530
245 887 111 8083773
249 887 106 8084030
244 888 112 7755066
245 888 110 7623738
246 888 108 7623738
249 888 105 7755324
243 889 112 7360823
244 889 111 7295030
245 889 109 7229238
246 889 108 7229239
249 889 104 7295289
243 890 111 7097653
244 890 110 7031860
245 890 108 6900531
246 890 107 6835252
249 890 104 7032631
243 891 111 6834740
244 891 109 6703154
245 891 108 6572081
248 891 103 6638131
249 891 103 6703924
255 879 115 9793102
255 880 116 9530188
254 881 115 9595724
255 881 116 9332809
255 886 116 8150081
254 887 114 7952960
255 887 115 7952960
256 887 117 7821374
250 888 109 7755581
253 888 111 7821375
254 888 113 7821375
255 888 114 7821375
256 888 116 7755582
253 889 110 7624510
254 889 112 7624510
255 889 113 7624510
256 889 115 7558717
254 890 111 7427390
255 890 112 7427390
254 891 110 7296063
255 891 111 7296063
242 892 112 6638132
243 892 110 6506545
244 892 108 6374960
249 892 102 6572340
249 893 102 6243890
249 894 102 6046769
281 939 117 5521717
244 972 117 5914158
245 972 116 5848365
246 972 116 5782572
243 973 117 5849137
242 974 116 5784117
268 975 124 8085574
230 1003 118 8676429
229 71 249 7363651
229 72 249 7297858
229 73 249 7232065
229 74 248 7232065
229 75 248 7232065
274 127 245 6441259
276 131 248 5844493
282 132 246 5652525
228 163 261 6964293
261 262 285 7762551
262 263 284 8223102
262 264 286 8486274
262 265 288 8683653
263 265 285 8946825
263 266 287 9078411
264 266 284 9275790
264 267 286 9341583
264 268 287 9275790
265 268 285 9407376
265 269 287 9275790
266 269 284 9341582
266 270 286 9209996
266 271 287 9012617
267 271 285 8881030
267 272 287 8749444
267 379 308 5403037
266 380 308 5468574
267 380 306 5534109
265 381 307 5534111
266 381 305 5599646
267 381 304 5664925
263 382 309 5468577
264 382 307 5534112
265 382 305 5599392
262 383 308 5468577
263 383 306 5534112
264 383 304 5599392
261 384 308 5664929
262 384 306 5730464
263 384 304 5730463
260 385 307 6124710
261 385 306 6190244
262 385 304 6255779
259 386 308 6979763
260 386 306 6453417
261 386 304 6518951
253 387 306 7045817
254 387 306 7308989
255 387 306 7374782
256 387 307 7243195
257 387 307 7242936
258 387 307 7176884
259 387 305 6979762
264 429 282 9079724
265 429 280 9079980
263 430 282 9079723
264 430 279 9014187
262 431 281 9211050
263 431 279 9079721
260 432 282 10000820
261 432 281 9474220
262 432 279 9276841
260 433 281 9869488
306 422 169 5134958
306 423 169 5200493
306 425 170 5200493
306 426 170 5134957
306 427 170 5134957
306 429 171 5134957
306 430 171 5134957
306 431 171 5134957
306 432 172 5134957
306 433 174 5003371
306 434 175 4871785
306 435 176 4740456
306 436 173 4872298
306 437 173 4938091
306 438 173 5069677
306 439 173 5069677
306 440 173 5069421
306 441 174 5069677
306 442 174 5069677
306 443 174 5069677
306 444 174 5069677
292 470 186 6123404
291 488 191 7833759
291 489 191 8425896
291 490 191 8689068
291 491 191 8557482
291 492 191 8096930
291 493 191 7504793
291 494 191 7044241
291 495 191 6978448
291 496 191 7175827
291 497 191 7702172
291 498 191 8228516
291 499 191 8623274
291 500 191 8820653
291 501 191 8952239
291 502 191 8689067
291 503 191 8228516
291 504 191 7767965
291 505 192 7570586
291 506 192 7833758
291 507 192 8425895
292 507 191 7768222
291 508 193 9346997
291 509 193 10070720
291 510 193 9939134
292 510 192 9149875
291 511 193 9018032
292 511 192 8426152
291 512 194 8096930
291 513 194 7439000
270 545 207 5532303
270 546 205 5334924
271 546 207 5005959
270 547 205 4808837
271 547 206 4348286
266 548 233 9085127
270 548 205 4479616
271 548 206 3887479
266 549 233 9150407
270 549 205 4150139
266 550 232 8755649
269 550 209 5071241
270 550 206 4018553
266 551 232 8426684
269 551 207 4939655
270 551 206 3886967
266 552 232 8031926
269 552 206 4873862
270 552 206 3755381
292 565 192 6453655
292 566 192 6782621
292 567 192 7374502
292 568 192 7506602
190 636 206 5529180
190 637 207 5529180
190 638 207 5463387
190 639 207 5397594
190 640 207 5331546
191 640 209 7568764
190 641 208 5462876
190 642 208 5463134
238 636 214 4544363
239 636 214 4412004
240 636 215 4410458
241 636 215 4605521
242 636 215 4735562
236 637 214 4609640
237 637 215 4740711
238 637 215 4542561
239 637 216 4213337
240 637 216 4212050
241 637 217 4276298
242 637 217 4472133
235 638 214 4476769
236 638 215 4673371
237 638 216 4673113
238 638 217 4475220
239 638 218 4080462
240 638 218 3948360
241 638 218 4078404
242 638 219 4208961
234 639 215 4804190
235 639 216 5000279
236 639 217 4934225
237 639 218 4736846
238 639 219 4473673
239 639 219 4144965
240 639 220 3881280
241 639 220 3880510
242 639 220 3945531
233 640 215 5985882
234 640 216 5919574
235 640 217 5787473
236 640 218 5524044
237 640 220 5063751
238 640 220 4669251
239 640 221 4274493
240 640 221 3945529
241 640 222 3944759
242 640 222 4010038
232 641 215 7497313
233 641 216 7167576
234 641 218 6706768
235 641 219 6245962
236 641 220 5785158
237 641 221 5324867
238 641 222 4996160
239 641 223 4667708
240 641 224 4404279
241 641 224 4403766
242 641 224 4469045
231 642 215 6444625
232 642 216 6312270
233 642 218 6245451
234 642 219 6178889
235 642 221 5849927
236 642 222 5652549
237 642 223 5323841
238 642 224 5126719
239 642 225 4995388
240 642 225 4732215
241 642 225 4797236
243 636 216 4931398
243 637 217 4602691
244 637 217 4864577
243 638 219 4273983
243 639 220 4142139
244 639 220 4338491
243 640 222 4141111
244 640 222 4337976
245 640 222 4600378
243 641 224 4600630
244 641 224 4863031
245 641 224 5125433
358 632 193 7755330
189 643 206 4409935
190 643 208 5791587
189 644 208 4738644
188 645 207 4541014
187 646 207 4738396
188 646 208 4541014
187 647 208 4672602
231 643 216 5721419
232 643 218 5523017
233 643 219 5784394
234 643 221 5849420
235 643 222 5323078
236 643 223 5257542
237 643 225 5389380
238 643 225 5389378
239 643 226 5455169
240 643 227 5586496
235 644 223 5060682
236 644 225 5192010
237 644 226 5454922
238 644 227 5652041
239 644 228 5849417
237 645 227 5520718
311 650 208 6723769
311 651 207 6789562
310 652 209 6658489
311 652 207 6789562
310 653 208 6658489
244 660 227 10709309
390 673 176 10400973
391 673 176 10729939
392 673 177 11058905
390 674 174 9940679
391 674 175 10335438
392 674 175 10730197
393 674 176 11058906
400 674 181 8426937
401 674 182 7637422
402 674 182 7966387
418 659 183 7106945
426 663 177 6255494
390 675 172 9677250
391 675 173 10137802
392 675 174 10664147
401 675 180 8690110
402 675 181 8295352
403 675 182 8295352
404 675 182 8690110
405 675 182 9085125
406 675 183 9414347
407 675 183 9414859
408 675 183 9546444
403 676 180 8953539
404 676 180 8624574
405 676 180 8427195
406 676 180 8624831
407 676 180 8756672
408 676 181 8756928
409 676 181 9020099
410 676 181 9217482
411 676 181 9283282
412 676 181 9217749
413 676 182 9086163
414 676 182 8625611
415 676 182 7967681
351 712 164 8154479
351 713 163 8022379
350 718 164 8219239
350 719 163 7956580
386 754 146 12494226
187 788 182 10522752
188 788 182 11245960
190 788 183 11903372
191 788 183 12034700
190 789 181 11705987
191 789 181 12034694
192 789 182 11771519
193 789 183 11310707
164 834 146 11243122
165 834 146 11045742
166 834 146 10650983
167 834 146 10322276
169 834 145 10191462
170 834 145 10454892
171 834 145 10718579
172 834 145 10916216
173 834 145 11047803
174 834 144 10850937
175 834 144 10456437
176 834 144 9996145
177 834 144 9272681
178 834 144 8680804
179 834 144 8549476
180 834 144 9339252
181 834 144 10194821
182 834 144 10787217
183 834 145 10918803
184 834 145 10853268
185 834 145 10787989
186 834 145 10853783
187 834 145 10787991
188 834 146 10196112
189 834 146 9275268
190 834 146 8420217
191 834 146 7433323
192 834 146 8157045
193 834 146 9472389
194 834 146 10655892
195 834 146 11444636
196 834 146 11969693
197 834 146 12428701
163 835 143 12690569
164 835 143 12230016
176 835 140 9207657
182 835 140 10787729
187 835 141 10722455
192 835 142 9604234
193 835 142 10260877
194 835 143 10851728
195 835 144 11310993
196 835 144 11572878
197 835 145 11900555
238 849 161 10188890
239 849 161 10123097
231 858 161 9071952
206 64 55 8676436
206 65 55 8741972
205 66 55 8807508
208 66 56 8938837
205 67 55 8873044
205 68 55 8873044
205 69 55 8807251
205 70 55 8807250
205 71 55 8872530
205 72 55 8938066
206 73 55 8872530
206 74 55 8872785
206 75 55 8807248
219 89 216 9471099
225 124 167 7365461
226 124 167 7365461
228 124 168 7431253
235 153 103 6049603
242 209 37 6694963
240 209 36 6825774
243 210 36 6498615
241 210 37 6760240
223 234 278 6121070
224 235 278 5923691
223 235 278 5923691
235 237 37 3221297
234 238 37 3417389
234 239 36 3482668
235 240 35 3941679
235 241 34 4400688
233 242 34 4728368
234 243 33 5122099
231 236 39 3025461
236 257 23 9142132
234 364 309 6188672
199 394 219 4271892
200 394 219 4271892
198 394 220 4272151
199 394 220 4272151
182 444 79 3364476
189 445 80 3167609
193 446 81 3102329
189 446 82 3233915
183 447 83 3168379
188 448 83 2970743
181 449 84 3035764
185 450 84 2838127
195 451 83 2443884
190 451 84 2640747
179 451 85 3165803
193 452 82 2180712
193 452 83 2312555
192 452 84 2574954
184 452 85 3165802
190 453 84 2509161
184 453 86 3756649
183 457 86 3821154
182 458 82 3099493
182 458 83 3165286
182 458 84 3427942
181 458 85 3755620
180 458 86 4149088
180 459 83 3361636
180 459 84 3624292
181 455 87 4741226
182 456 87 4609381
183 456 87 4609381
182 457 87 4477536
173 459 129 5001829
174 459 130 5002086
175 459 132 5068136
177 460 85 4280417
175 460 86 4674399
175 461 85 4608351
173 461 86 4936797
170 465 83 4542562
170 465 84 4278874
168 465 85 4475221
169 466 82 5068906
168 466 83 4476769
168 466 84 4081495
166 466 85 4146256
168 467 80 6318716
167 467 81 5792372
167 467 82 5134699
166 467 83 4476769
165 467 84 3949909
164 467 85 4080206
167 468 79 6779267
166 468 80 6450302
165 468 81 5923958
165 468 82 5266285
164 468 83 4608355
163 468 84 4081495
162 468 85 4080206
165 469 79 6910853
164 469 80 6647681
163 469 81 6187130
162 469 82 5595250
162 469 83 4937320
161 469 84 4410460
165 470 77 7239818
164 470 78 7174025
163 470 79 7108232
162 470 80 6910853
161 470 81 6516095
161 470 82 5924215
160 470 83 5332078
166 471 73 7502990
164 471 76 7305611
163 471 77 7239818
162 471 78 7239818
161 471 79 7174025
160 471 80 7042439
160 471 81 6713474
172 460 87 4871515
174 460 87 4871515
180 460 139 4673891
179 460 140 4608355
180 460 140 4608355
173 462 135 5198688
173 463 135 5198430
173 466 135 5264222
173 469 136 4936546
172 470 136 5001824
171 471 135 5198427
172 470 135 5198427
170 472 135 5132634
168 473 135 5066841
169 473 135 4870235
166 474 136 5066841
167 474 136 4935512
165 475 136 4935512
166 475 136 4869976
164 476 136 4935512
165 476 136 4935512
163 475 135 4869720
172 462 157 3360341
171 462 158 3294549
170 462 159 3097685
168 462 160 2966613
167 462 161 2966871
172 463 156 3360342
170 463 157 3294806
169 463 158 3229271
168 463 159 3163992
167 463 160 3164250
165 463 161 3164508
171 464 155 3294548
170 464 156 3426135
169 464 157 3360857
167 464 158 3361371
166 464 159 3361629
165 464 160 3361887
172 465 153 3162705
171 465 154 3228756
170 465 155 3360599
168 465 156 3426650
167 465 157 3427164
165 465 158 3493215
164 465 159 3493473
171 466 153 3162962
169 466 154 3360342
168 466 155 3426650
166 466 156 3492957
165 466 157 3559008
164 466 158 3625059
171 467 152 3228756
169 467 153 3294806
167 467 154 3426650
166 467 155 3558750
165 467 156 3624801
169 468 152 3491928
167 468 153 3492443
166 468 154 3624543
164 468 155 3756387
167 469 152 3755358
168 469 152 3755358
166 469 153 3821922
164 469 154 3887973
166 470 152 4084581
164 470 153 4216938
164 471 152 4479853
165 481 55 7240334
164 482 55 7306127
164 488 86 5331816
164 489 86 5267051
165 491 86 5662581
164 476 135 4935513
165 476 135 4935513
157 496 56 6451844
159 497 55 6517638
157 497 56 6912395
159 498 55 7175568
157 498 56 7372946
159 499 55 7899291
156 499 56 7833497
158 500 55 9017771
156 500 56 8754599
158 501 55 9544115
156 501 56 8951978
158 502 55 9478322
156 502 56 8886185
157 503 55 8886185
155 503 56 8425634
157 504 55 8030877
155 504 56 7636118
157 505 55 7636119
155 505 56 7504275
166 492 89 5202029
155 500 135 5593445
155 501 135 5725031
155 502 135 5856617
155 503 135 6053739
155 504 135 6119789
141 512 127 7297106
155 512 133 6447725
140 535 124 6837578
133 536 123 7100490
138 537 123 7034956
142 538 123 6903629
156 545 126 5858679
150 554 135 6449785
147 571 135 4082788
147 572 135 4674926
138 589 94 7298383
116 627 95 6771264
116 628 95 6771264
116 629 95 6771264
114 632 97 7164991
114 633 97 7164991
114 634 97 7164991
167 624 135 3689308
167 625 135 3886687
167 626 135 4018273
167 627 135 4084066
167 628 135 4084066
167 629 135 4018273
167 630 135 3952479
167 631 135 3886686
167 632 135 3755100
167 633 135 3689309
167 634 135 3623261
167 635 135 3623262
167 636 135 3754592
167 637 135 3754849
167 638 135 3886434
167 639 135 4017762
167 640 135 4214883
167 641 135 4280676
167 642 135 4412004
167 643 135 4477794
167 644 135 4740706
167 645 135 5003618
167 646 135 5266530
167 647 135 5463650
167 648 135 5397599
167 649 135 5266013
167 650 135 5200221
184 636 203 5661042
162 660 47 6129833
146 658 70 5461872
146 665 70 6260392
146 666 70 6522018
166 652 135 5200477
165 654 135 5201248
164 656 135 5398627
163 657 135 5464420
163 658 135 5530214
163 659 135 5530214
162 660 135 5530214
162 661 135 5398628
161 662 135 5332835
179 653 198 7109518
179 654 198 7109514
179 655 198 7043462
147 669 70 11377579
147 670 70 11118513
117 668 87 3295587
118 668 88 3689828
118 668 89 4017506
110 680 119 7035488
110 681 119 6510431
110 682 119 5854561
110 683 119 5265002
151 684 70 10792382
156 688 69 11383746
156 689 69 11383746
157 690 69 11383746
157 691 69 11383746
157 692 69 11383746
157 693 69 11317953
158 694 69 11317953
158 695 69 11186367
159 697 69 10002096
160 699 69 8752293
107 688 118 4940418
107 689 118 5006211
107 690 118 5269383
108 697 118 7111587
110 684 119 4938359
110 685 119 4939647
110 686 119 4940418
110 687 119 4940676
110 688 119 5072004
110 689 119 5137797
110 690 119 5335176
110 691 119 5664141
110 692 119 6453657
110 693 119 6716829
110 694 119 6914208
111 695 119 6980001
111 696 119 6980001
111 697 119 6980001
111 698 119 6914208
111 699 119 6848415
159 705 70 5002360
160 706 70 4936567
160 707 70 4936567
161 708 70 5199739
161 709 70 5528704
161 710 70 6120841
162 711 70 6647186
162 712 70 7173531
163 714 70 7765923
111 700 119 6716829
111 701 119 6651036
111 702 119 6585243
111 703 119 6519707
111 704 119 6519707
111 705 119 6716573
111 706 119 6782366
111 707 119 6848159
112 708 119 6979745
111 709 119 6979745
111 710 119 7045539
111 711 119 7111332
112 712 119 7111332
112 713 119 7176865
112 714 119 7176348
112 715 119 7044503
157 713 135 5068142
112 716 119 6518158
112 717 119 6517899
112 718 119 6583434
112 719 119 6649227
114 720 120 6649229
114 721 120 6780560
114 722 120 6977941
114 723 120 7241113
114 724 120 7372700
114 725 120 7438494
113 726 120 7438494
113 727 120 7372702
113 728 120 7372701
113 729 120 7504288
113 730 120 7701667
112 731 120 7767458
143 716 135 4016741
134 717 135 4082533
149 717 136 3951205
130 718 135 4148582
142 718 136 4016996
156 718 138 4280168
134 719 136 4016996
149 719 137 4214375
156 719 138 4411754
140 720 137 4345961
133 721 137 4609133
147 721 138 4740719
138 722 138 5201270
145 723 139 5661821
136 724 139 6188165
142 725 140 6385544
125 726 139 7175060
147 726 141 6451337
123 727 139 7569818
128 727 140 7240853
123 728 139 7964576
123 728 140 7569818
150 728 143 6122372
123 729 139 8227748
122 729 140 7832990
125 729 141 7306646
123 730 140 7964576
122 730 141 7438232
149 730 144 5793407
123 731 141 7504025
126 731 142 6977681
159 732 83 7504325
158 732 84 6780602
157 732 85 5333151
156 732 85 5793447
155 732 86 4741009
153 732 86 4148874
157 733 85 6122416
157 733 86 5135770
154 733 86 4938137
156 734 86 5201310
156 735 86 6188204
157 736 86 7109560
157 737 86 7964611
160 745 86 6253472
160 746 86 6121883
112 732 120 8030629
112 733 120 7833249
111 734 120 7570076
111 735 120 7306904
113 737 121 6714509
113 738 121 6517130
112 739 121 6253958
112 740 121 5990786
108 741 120 5991044
112 741 121 5727614
108 742 120 5859458
112 742 121 5596028
108 743 120 5793665
112 743 121 5596028
108 744 120 5925251
111 744 121 5596028
111 745 121 5661820
111 746 121 5859198
124 732 141 7438232
132 739 143 6122372
132 740 143 6122372
134 740 144 6122372
131 741 143 6188165
134 741 144 6188165
135 741 145 6122372
131 742 143 6188165
133 742 144 6253958
131 743 143 6253958
130 744 143 6253958
265 140 85 5721410
266 140 86 5655873
266 140 87 5590080
301 135 218 8346684
298 135 219 8281407
301 136 218 8475434
297 136 219 8410413
300 137 218 8735768
296 137 219 8604699
299 138 218 8995593
295 138 219 8864779
299 139 218 9715969
299 140 218 10174208
275 128 242 5980460
275 129 242 5454117
276 130 242 5256738
278 131 242 5322789
285 132 238 6376507
284 132 239 6113335
283 132 240 5915699
282 132 241 5718063
279 132 242 5520427
275 132 243 5323047
286 133 240 6376508
285 133 241 6113336
282 133 242 5784370
279 133 243 5521198
277 133 244 5258026
287 134 241 6639938
285 134 242 6245437
282 134 243 5982008
268 145 57 7490084
269 146 57 7620127
270 147 57 7684634
267 146 58 7620643
269 147 58 7619357
267 147 59 7620129
270 148 58 7618585
269 148 59 7619101
268 148 60 7685153
266 141 82 6181706
267 141 83 6116169
267 141 84 6050633
268 141 85 6050632
269 141 86 6050631
270 141 87 5984838
267 142 81 6444621
268 142 82 6444621
268 142 83 6379341
269 142 84 6313805
269 143 82 6707793
270 143 83 6642513
270 144 82 6708050
271 144 83 6642770
271 145 82 6642770
272 145 83 6708563
273 145 84 6774356
270 146 79 6708049
271 146 81 6642769
272 146 82 6708562
274 146 83 6774356
274 146 84 6840149
268 147 76 6642768
270 147 77 6576975
270 147 78 6642768
271 147 79 6642768
272 147 80 6708561
273 147 81 6774354
274 147 82 6840147
275 147 83 6905941
276 147 84 6971735
269 148 75 6576974
270 148 76 6576975
271 148 77 6642768
272 148 78 6642768
272 148 79 6642768
273 148 80 6774354
274 148 81 6774354
275 148 82 6905940
276 148 83 6971734
277 148 84 7037528
271 149 75 6511180
271 149 76 6576975
273 149 77 6642768
273 149 78 6642768
274 149 79 6708561
275 149 80 6774354
276 149 81 6840147
277 149 82 6971733
278 149 83 7037527
278 149 84 7169114
279 149 85 7234907
280 149 86 7366493
272 150 75 6511180
273 150 76 6576975
274 150 77 6642768
275 150 78 6708561
275 150 79 6774354
276 150 80 6840147
277 150 81 6971733
278 150 82 7037526
279 150 83 7169113
280 150 84 7300700
281 150 85 7366493
282 150 86 7498079
273 151 75 6511180
274 151 76 6642768
276 151 77 6708561
276 151 78 6774354
277 151 79 6840147
278 151 80 6971733
282 151 85 7498079
283 151 86 7629665
275 152 75 6576974
276 152 76 6642768
277 152 77 6774355
278 152 78 6840147
305 146 169 7426872
307 147 169 7557684
305 147 169 7557684
309 148 169 7754290
306 148 169 7754290
307 149 169 8016689
309 150 169 8279346
311 151 169 8476212
303 149 170 8408856
303 150 170 8670998
303 151 170 8933143
303 152 170 9195290
303 153 170 9391901
302 154 170 9260835
302 155 170 9196078
302 156 170 9000246
299 141 218 10699776
302 157 170 8936000
302 158 170 8609352
302 159 170 8085585
302 160 170 7626581
302 161 170 7101268
302 162 170 6575443
277 182 248 7824227
259 184 249 5455937
277 185 248 6840417
261 183 250 4466987
261 184 250 4466988
261 185 250 4466988
311 198 170 8803412
312 199 170 8803413
313 200 170 8868950
312 200 170 8868950
315 204 170 8738666
285 195 249 4610410
285 196 249 4610409
286 197 249 4675943
286 198 249 4806758
313 206 171 8211044
312 206 171 8211044
311 208 172 7422300
310 208 172 7422300
298 220 176 4013909
297 220 176 4013909
296 220 177 3486795
295 220 177 3486795
295 215 251 7629950
261 219 271 7220022
262 220 271 6892345
303 221 177 3619667
294 224 178 3490138
301 225 178 3884125
300 225 178 3884125
305 226 178 4344161
292 233 254 9395037
261 222 272 7552334
295 237 181 5850706
295 238 181 5916240
295 239 181 6112590
295 240 181 6178125
296 241 181 6309455
281 253 74 5126464
281 254 74 5192256
282 255 74 5389377
280 255 75 4598319
281 256 75 5650237
281 257 75 6833999
283 258 75 7623259
280 258 76 7291725
281 259 76 7357261
282 260 76 6896967
280 261 77 6238269
282 262 77 6568519
283 263 77 6570572
280 263 78 6634056
281 264 78 6109510
282 265 78 5321792
281 266 79 4663096
283 267 79 4665670
280 267 80 4728383
283 268 79 4931415
281 268 80 4994385
303 261 170 7220561
303 262 170 7622768
303 263 170 7819628
302 264 170 7091279
302 265 170 7742787
302 266 170 7350598
294 258 193 4805212
293 259 193 4608862
293 260 193 4609119
293 261 193 4543838
292 262 193 4412766
295 262 194 5069668
295 263 194 5070181
295 264 194 4939622
294 265 194 4809063
293 266 194 4743784
289 267 188 4283491
293 267 194 4743785
293 268 194 4743786
284 269 79 5000294
282 269 80 5063776
283 270 80 5066606
280 270 81 5129819
284 271 80 5200509
282 271 81 5066855
283 272 81 5200497
281 272 82 5330528
284 273 81 5135990
282 273 82 5266534
285 274 81 4940154
283 274 82 5070955
284 275 82 4941426
281 275 83 5401204
285 276 82 5335159
282 276 83 5794937
283 277 83 6646396
281 277 84 6975359
284 278 83 7039101
282 278 84 7433600
285 279 83 7039101
283 279 84 7433600
284 280 84 7367807
281 280 85 7762306
285 281 84 7367807
282 281 85 7696513
284 282 85 7565184
281 282 86 7828097
284 283 85 7630978
281 283 86 7828355
285 284 85 7631235
282 284 86 7828613
298 280 185 5271688
298 281 185 5732239
296 281 186 5140102
295 281 187 4349815
296 282 186 5666190
295 282 187 4612731
295 283 187 5138306
295 284 187 5729673
285 285 85 7762820
282 285 86 7894663
279 285 87 8026761
280 286 87 8027018
280 287 87 8027275
295 285 187 6123403
294 285 188 5793668
295 286 187 6450313
294 286 188 6845329
295 287 187 5657970
294 287 188 6054530
296 288 187 5259612
294 288 188 5524329
296 289 187 4927303
294 289 188 5584720
292 289 189 5718108
296 290 187 8742523
294 290 188 6964314
292 290 189 5254984
296 291 187 10652319
294 291 188 9795469
292 291 189 8544632
291 291 190 6373977
296 292 187 10522531
295 292 188 10389404
292 292 189 10190483
291 292 190 9202816
296 293 187 10457764
295 293 188 10588065
292 293 189 10323865
291 293 190 9665164
296 294 187 10261155
295 294 188 10194334
293 294 189 9864598
291 294 190 9271689
295 295 188 9931419
293 295 189 9536146
291 295 190 9009031
296 296 187 10130083
295 296 188 9866396
293 296 189 9602196
291 296 190 9140874
295 297 188 9866653
293 297 189 9536917
291 297 190 9141644
295 298 188 9735836
293 298 189 9471893
291 298 190 9142157
295 299 188 9670554
293 299 189 9472660
298 308 90 6776424
300 309 90 7956306
285 311 93 6970968
289 312 93 6970966
289 314 94 6512480
286 315 95 6250857
310 316 91 9465674
291 316 95 6579305
288 317 86 7232328
311 317 91 9728845
287 317 96 5593959
312 318 91 9860431
289 318 96 5659236
312 319 92 10912091
292 319 96 5724512
287 319 97 5003621
288 320 97 5134178
298 321 90 8218187
312 321 91 10386775
313 321 92 11239766
290 321 97 5199198
291 322 97 5067097
314 323 92 11239505
314 323 93 11108952
295 323 97 5132375
287 323 98 4608094
308 324 91 9860692
315 324 92 11042645
315 324 93 11108955
290 324 98 5065556
300 325 90 8480336
318 325 92 10779997
317 325 93 10846048
293 325 98 6244168
296 326 90 9005653
306 326 91 9728346
315 326 93 10648673
288 326 99 6374469
291 327 90 9269082
296 327 91 9859931
308 327 92 10254172
313 327 93 10451294
317 327 96 8872261
290 327 99 6834247
302 328 92 10122586
309 328 93 10319707
311 328 94 9859414
316 328 96 9004105
293 328 99 7360075
299 329 92 9991000
307 329 93 10122328
310 329 94 9596242
288 329 100 7163467
296 330 90 9795169
297 330 91 9991517
299 330 92 10056793
309 330 93 10122328
291 330 100 7688781
302 331 92 10254172
296 331 100 7753545
288 331 101 7754832
306 332 92 10385758
315 332 94 9333070
291 332 101 7688781
288 329 107 5723503
289 330 107 5525092
289 331 107 5458779
289 332 107 5392725
315 333 94 9267277
296 333 101 7754317
289 333 102 7821142
292 334 102 7755350
311 335 96 8343612
295 335 102 7689558
290 335 103 7362137
300 336 102 7689558
291 336 103 7362137
312 337 95 8212539
317 337 97 8211776
311 337 99 8213067
293 337 103 7427672
312 338 95 8014905
317 338 97 8212035
298 338 103 7493207
291 338 104 7363422
312 339 95 7883064
318 339 97 8146757
303 339 103 7690329
294 339 104 7560543
297 340 104 7757664
292 340 105 7824485
320 341 99 8345685
302 341 104 7954786
294 341 105 8021351
321 342 99 8280408
297 342 105 8021094
301 343 105 8020837
321 344 97 8083283
322 344 98 8149082
322 344 100 8281697
304 344 105 7954787
322 345 97 8018005
323 345 98 8084060
316 345 99 8215647
322 345 100 8347233
321 345 101 8347233
321 346 96 7952979
324 346 98 8018783
319 346 99 8150370
322 346 101 8216162
321 347 96 7954524
324 347 98 7954533
319 347 100 8151655
322 347 101 8151655
317 348 95 8087655
324 348 98 7955819
292 342 106 8350830
294 343 106 8350830
296 344 106 8284524
293 344 107 8944509
299 345 106 8284267
300 346 106 8152939
301 347 106 8022382
300 348 106 7891825
277 336 224 9665652
279 336 225 8873573
276 337 223 10453368
277 337 224 9727596
279 337 225 8738393
277 338 224 9395551
279 338 225 8604242
275 339 223 9394778
277 339 224 8998483
279 339 225 8405837
275 340 223 8734283
277 340 224 8668236
279 340 225 8405325
280 340 226 7944522
275 341 223 8206657
277 341 224 8273225
279 341 225 8141899
275 342 223 7811132
277 342 224 8009798
278 342 225 7944265
280 342 226 7680582
276 343 224 7811651
323 349 98 8351606
302 349 106 7826548
290 349 107 7959418
288 349 108 8158081
287 350 108 8092803
287 350 109 8224647
287 351 108 7764355
287 351 109 8093320
297 352 107 6909047
289 352 108 7501184
288 352 109 8027529
301 353 107 6843254
289 353 109 7830149
290 354 109 7566977
299 355 108 6711668
303 356 108 6580082
292 356 110 7632770
298 357 109 6843254
301 358 109 6580082
305 359 109 6382703
297 359 110 6974840
300 360 110 6711668
303 361 110 6448496
306 362 110 6119789
301 363 111 6252149
304 364 111 5792371
303 366 112 5266545
328 384 116 5465982
321 386 118 4939124
320 388 119 5005174
323 389 119 5399675
318 390 120 5070709
321 391 120 5202808
323 392 120 5465980
320 394 121 5532031
323 395 121 5532548
325 396 121 5533065
286 387 170 6122099
287 388 170 6186607
286 388 170 6318705
287 389 170 7234917
286 389 170 7169894
287 390 170 8021858
287 391 170 8679273
288 392 170 9139568
287 392 170 8613482
287 393 170 9336177
270 386 305 5534098
270 387 305 5796757
270 388 304 6191258
270 388 305 6191258
320 397 122 5138820
324 398 122 4744321
308 398 124 5138048
320 399 123 4612735
308 400 125 5072513
279 400 200 11759413
279 401 200 11561519
279 402 200 11363882
279 403 200 11100195
279 404 200 11229213
279 405 200 11488020
279 406 200 11222024
279 407 200 11550475
279 408 200 11747083
280 409 200 11812362
280 410 200 10828045
280 411 200 9321242
280 412 200 8603181
312 415 133 4414327
312 417 134 4611448
280 413 200 8212538
280 414 200 8215368
280 415 200 7887433
280 416 200 7690570
281 416 200 7886406
281 417 200 7690570
281 418 200 7887692
281 419 200 8150864
281 420 200 8480086
281 421 200 8809051
283 422 199 8744805
281 422 200 8941407
281 423 200 8876641
283 424 199 8745575
281 424 200 8745311
281 425 200 8416603
281 426 200 8022105
283 427 199 8285283
283 428 199 8153698
299 435 169 5466510
299 436 169 5335181
304 443 168 5071752
283 429 199 8351335
283 430 199 8811886
283 431 199 9206644
281 431 200 8746608
283 432 199 9338230
281 432 200 8943729
280 432 201 8483435
283 433 199 9469558
281 433 200 9338229
280 433 201 8548970
283 434 199 9337971
281 434 200 9469557
280 434 201 8745833
283 435 199 8547942
281 435 200 9205614
280 435 201 8942183
283 436 199 7101011
281 436 200 8679270
280 436 201 8876133
283 437 199 6443856
281 437 200 7692377
280 437 201 7955289
283 438 199 6510939
281 438 200 6114120
280 438 201 6179139
283 439 199 8222850
281 439 200 7562857
280 439 201 6574674
281 440 200 8682887
280 440 201 7892082
281 441 200 7763849
280 441 201 7959424
281 442 200 7436173
280 442 201 7631235
282 443 200 7567759
280 443 201 7565958
282 444 200 7568017
280 444 201 7566472
278 431 202 8089192
278 432 202 8154726
278 433 202 8088418
278 434 202 7890523
278 435 202 7626322
278 436 202 7297099
278 437 202 6968135
278 438 202 6244672
278 439 202 6113606
278 440 202 6180176
278 441 202 5984087
278 442 202 5984606
278 443 202 5985380
278 444 202 6051946
276 432 226 4278109
276 433 226 4212832
276 434 226 4147557
276 435 226 4082282
276 436 226 4016749
276 437 226 3885936
276 438 226 3754609
276 439 226 3623282
276 440 226 3426161
276 441 226 3426161
275 442 226 3425903
275 443 226 3556717
275 444 226 3753580
330 457 149 7240339
330 460 150 8096162
311 452 173 5992854
311 453 173 5729682
282 445 200 8225948
281 445 201 8027539
281 446 201 9080999
281 447 201 9015723
282 448 201 8687274
282 449 201 7963809
282 450 201 6714256
282 451 201 5662082
282 452 201 5465474
282 453 201 5531526
282 454 201 5992077
282 455 201 6386834
282 456 201 7110299
278 445 202 5987440
278 446 202 6053750
279 447 202 6054780
279 448 202 6055296
279 449 202 6121348
277 449 203 6055297
279 450 202 6121863
277 450 203 6121605
279 451 202 5793411
277 451 203 6056325
279 452 202 5333374
277 452 203 5859461
279 453 202 5992075
277 453 203 6254732
279 454 202 6057868
277 454 203 6320525
279 455 202 6452368
277 455 203 6648975
279 456 202 6847125
279 457 202 7044503
331 461 150 8096163
330 462 150 7964578
330 463 150 7701663
327 463 151 7175319
330 464 150 7241112
330 465 150 6846097
328 465 151 6582925
330 466 150 6385546
278 473 202 6912917
278 473 203 6452624
278 474 202 7176089
278 474 203 6584210
278 475 202 7373468
278 475 203 6781589
278 476 202 7570847
278 476 203 6847382
320 484 166 6845839
279 482 202 7834021
279 482 203 7242141
279 483 202 8294572
279 483 203 7571106
279 484 202 8623537
280 484 203 7834278
280 485 203 8294829
286 506 190 9345713
286 507 190 9411506
288 508 193 10069436
326 521 177 8358302
326 522 177 8292508
316 535 90 8491431
316 536 90 8688810
315 540 90 7767193
278 540 200 8555945
315 541 90 7109519
325 546 170 9345195
325 547 170 9279402
325 548 170 8950437
325 549 170 8424093
318 549 185 8950188
325 550 170 8095128
318 550 185 9410739
325 551 170 8160921
325 552 170 8292507
277 544 200 8293034
277 545 200 7766433
277 546 200 7437468
310 560 90 8554649
317 586 94 6975615
316 587 94 6844029
316 588 94 6844029
280 585 205 7308192
314 604 169 7103332
312 613 94 7370114
313 614 94 7962251
147 462 118 5915457
148 462 118 5784130
149 462 118 5652803
171 458 129 5264726
172 458 129 5199194
161 477 128 5261387
162 478 127 4933194
163 479 127 4538952
163 480 129 4473159
164 480 127 4276038
163 481 130 4407366
164 481 128 4210502
162 483 131 4341573
166 483 130 4802381
161 498 134 4934228
158 644 111 4015469
157 645 112 3818344
158 645 111 4015726
158 646 111 3950189
158 647 112 3950701
159 649 110 4345970
159 650 110 4412018
159 651 110 4543602
159 652 110 4675186
159 653 111 4807026
159 654 111 4873074
159 655 111 4938867
160 655 109 5135991
159 656 112 5004660
160 656 109 5201528
160 657 109 5267577
160 658 110 5267321
160 659 110 5267321
160 660 111 5267321
160 661 111 5201529
160 662 111 5201530
161 662 109 5135739
161 663 110 5004151
161 664 110 4938356
166 680 118 5792886
111 685 122 6254223
166 682 119 5266542
299 821 106 13543302
285 823 135 13406576
284 823 136 13340525
283 823 137 13340012
285 824 133 13341812
285 824 134 13275506
284 824 135 13209455
282 824 136 13143404
281 824 137 13077098
283 825 134 13143921
282 825 135 13143663
281 825 136 13012076
280 825 137 12946026
282 823 138 13273962
281 824 138 13076841
286 830 121 13801070
274 869 137 8808521
274 870 137 8611399
273 871 136 8479815
274 871 137 8414021
273 872 136 8414022
275 872 137 8282435
273 873 136 8282436
275 873 137 8216643
273 874 136 8151108
275 874 137 8019522
273 875 136 7953987
275 875 137 7888194
272 876 135 8020039
274 876 136 7954246
276 876 137 7822660
274 877 135 8020041
275 877 136 7954248
272 865 144 9136714
271 865 145 9137228
273 866 144 9005641
271 866 145 9071435
273 867 144 8939848
272 867 145 9071435
270 867 146 9203022
274 868 144 8874056
272 868 145 9005643
270 868 146 9203022
274 869 144 8808521
272 869 145 9005643
270 869 146 9137486
275 870 144 8742728
273 870 145 8874314
271 870 146 9071693
276 871 138 8348227
275 871 144 8611399
273 871 145 8808778
271 871 146 9006157
276 872 138 8216642
275 872 144 8545607
273 872 145 8742986
271 872 146 9006158
277 873 138 8085057
276 873 144 8479815
274 873 145 8742987
271 873 146 9006159
277 874 138 7887936
276 874 144 8414278
274 874 145 8611657
272 874 146 8874829
277 875 138 7690815
276 875 144 8282951
274 875 145 8546123
272 875 146 8809294
276 876 144 8085832
274 876 145 8349003
272 876 146 8612174
276 877 144 8020041
274 877 145 8217419
272 877 146 8414797
257 862 186 9334861
257 862 187 9334863
256 862 188 9269329
259 863 187 9400656
259 863 188 9335121
258 863 189 9335122
257 863 190 9335122
256 863 191 9335122
255 863 192 9335123
259 864 190 9400915
259 864 191 9400915
257 864 192 9400915
275 878 134 8020555
276 878 135 8020555
267 893 122 7231304
269 893 123 7362631
271 893 124 7494216
271 893 125 7625545
278 893 132 6770493
279 893 133 6573114
280 893 134 6375735
281 893 135 6178356
281 893 136 6112563
281 893 137 6046770
275 878 144 7888456
274 878 145 8020041
281 893 138 6046770
281 893 139 6046770
277 893 148 6244149
277 893 149 6441528
277 893 150 6704700
276 893 151 6967612
276 893 152 7164732
276 893 153 7231037
277 893 154 7231293
277 893 155 7362877
277 893 156 7559997
264 898 121 6442559
265 899 121 6311230
266 900 121 6179644
267 901 121 6113594
266 902 120 6048059
268 902 121 5982008
267 903 120 5850937
269 903 121 5850679
269 904 121 5719093
319 907 130 9073248
317 908 130 8613468
317 908 131 8810847
316 908 132 9074019
314 908 136 9797484
316 909 130 8218968
316 909 131 8416347
315 909 132 8679519
315 909 133 8811105
314 909 134 8942691
313 909 135 9205605
313 909 136 9468519
312 909 137 9665898
288 900 147 6507321
306 902 144 8481111
293 902 145 8020560
290 902 150 5915184
312 903 143 9336420
305 903 144 8875869
295 903 145 8415318
289 903 146 7888974
310 904 143 9731178
305 904 144 9270627
298 904 145 8810076
285 904 152 6375219
306 905 144 9533799
300 905 145 9139041
290 905 146 8612697
307 906 144 9796971
302 906 145 9402213
298 906 146 8941662
297 906 147 8546904
296 906 148 8086353
296 906 149 7757388
296 906 150 7428423
296 906 151 7230787
296 906 152 7098943
295 906 152 7098943
295 906 153 6966844
294 906 153 6966844
306 907 145 9665385
304 907 146 9270627
304 907 147 8810076
303 907 148 8415318
303 907 149 8086353
304 907 150 7757388
302 907 152 7427908
300 907 153 7295552
311 909 138 9863277
311 909 139 11113088
279 894 154 6705464
279 894 155 6705718
279 894 156 6639923
279 894 157 6770739
281 895 154 6179891
290 902 154 5783851
290 902 155 6309682
293 906 154 7097915
298 907 154 7229501
297 907 154 7229501
296 907 155 7426110
295 907 155 7426110
298 908 155 7689281
274 910 121 5587764
279 910 122 5784885
280 910 123 5982006
281 910 124 6179385
282 910 125 6442299
283 910 126 6574143
285 910 129 6705729
286 910 130 6705729
287 910 131 6639936
288 910 132 6639936
288 910 133 6639936
289 910 134 6574143
289 910 135 6639678
291 910 136 6902850
292 910 137 7166022
278 911 122 5785142
279 911 123 5916471
288 911 135 6113592
288 911 136 6245178
288 911 137 6245435
277 912 122 5719605
298 910 138 8350296
305 910 139 9665898
308 910 140 10454901
310 910 141 10783865
288 911 138 6245178
292 911 139 6508349
296 911 140 7560780
304 911 141 9271397
314 911 143 11047808
316 911 144 11244930
317 911 145 11244674
314 911 146 11112831
292 912 141 6442814
297 912 142 6640192
304 912 143 8416346
310 912 144 10192500
314 912 145 10718587
315 912 146 10652538
315 912 147 10257522
313 912 148 9796714
310 912 149 9467749
307 912 150 9270113
293 913 143 6442814
297 913 144 6574143
302 913 145 8021589
307 913 146 8810848
312 913 147 8876127
311 913 148 8941662
311 913 149 8875612
309 913 150 8743769
293 914 145 6969158
296 914 146 7758160
299 914 147 8086867
303 914 148 8283990
307 914 149 8283733
308 914 150 8283476
308 914 151 8349010
294 915 149 8020562
298 915 150 8020562
302 915 151 8086096
306 915 152 8283216
297 916 152 8283217
302 916 153 8414803
289 917 151 8020304
297 922 148 6837314
294 923 146 5916471
296 923 147 6245436
297 923 148 6639937
299 923 149 6902852
295 924 147 6048060
296 924 148 6311232
298 924 149 6508354
293 925 147 5850683
295 925 148 6113855
297 925 149 6179648
298 925 150 6376514
299 925 151 6508354
306 916 154 8480595
305 916 154 8480595
305 916 155 8612180
301 917 154 8480595
269 910 202 11174506
269 911 202 11174505
269 912 202 11109225
270 913 202 11109482
271 914 202 11109482
271 915 202 11043689
268 915 203 11109225
268 916 203 11109225
269 917 203 11109225
269 918 203 11109225
270 919 203 11109225
270 920 203 11109225
271 921 203 11043432
268 921 204 11174505
271 922 203 11043432
268 922 204 11174505
269 923 204 11174506
269 924 204 11043434
270 925 204 10977899
293 926 149 5916477
294 926 150 6048063
295 926 151 6113854
296 926 152 6048060
297 926 153 5916475
278 936 188 6309428
279 937 188 6572600
280 938 188 6967358
281 939 188 7362116
270 926 204 10912364
271 927 204 10781036
268 927 205 10912365
271 928 204 10781037
268 928 205 10846830
268 929 205 10715501
269 930 205 10715501
269 931 205 10781037
270 932 205 10715244
270 933 205 10649451
271 934 205 10517865
268 934 206 10649708
271 935 205 10320486
268 935 206 10649708
269 936 206 10518122
269 937 206 10386536
271 1005 133 9335122
222 554 39 7701913
212 611 74 5531522
213 612 74 5597314
213 613 73 5466500
213 613 74 5532291
215 616 70 5270153
215 618 73 5993869
215 618 74 6191246
207 677 43 9282480
207 700 47 8162726
207 701 47 8359846
214 733 66 9278875
210 843 137 11635064
210 843 138 11635321
211 843 138 11700856
211 843 139 11766906
212 843 140 11439229
213 843 141 11176832
213 843 142 11045247
231 856 165 7823429
229 856 166 8086600
224 871 202 7361603
206 898 153 8412738
207 899 151 8740933
206 899 152 8740933
204 899 153 8740932
207 900 149 8280380
206 900 150 8740675
204 900 151 8938055
208 901 147 7555630
206 901 148 8082230
205 901 149 8542781
204 901 150 9003077
208 902 145 6897443
207 902 146 7226408
205 902 147 7686959
204 902 148 8344632
208 903 144 7093795
206 903 145 7225894
205 903 146 7554859
208 904 142 7553318
207 904 143 7422246
214 918 124 6771520
212 918 125 7034692
213 918 125 7166278
211 918 126 7297864
212 918 126 7429450
210 918 127 7495243
213 919 123 6968899
210 919 124 7297864
211 919 124 7429450
208 919 125 7626829
201 919 136 7428164
200 919 137 7624257
200 919 138 7885887
209 920 123 7429450
200 919 139 8213054
206 926 122 8020822
206 927 120 8152408
205 927 121 8020822
204 927 122 7823443
206 928 119 8152408
205 928 120 8020822
204 928 121 7823443
205 925 123 8218201
203 925 124 8218201
204 926 123 7889236
203 927 123 7560271
214 978 162 6968385
214 978 163 7099971
214 978 164 7297350
216 979 163 7297350
216 979 164 7494729
216 979 165 7757901
226 1013 139 10979700
225 1013 139 10979700
224 1013 146 11900288
226 1014 139 10650735
225 1014 140 10847857
225 1014 141 11176565
224 1014 144 11768702
224 1014 145 11768702
224 1014 146 11637116
398 645 176 7691336
397 645 177 7691336
397 645 178 7625542
396 645 179 7625542
396 645 180 7560006
395 645 181 7560007
394 645 182 7625543
400 646 176 7756871
399 646 177 7756870
399 646 178 7756870
398 646 179 7691334
397 646 180 7560261
397 646 181 7560006
396 646 182 7560007
396 646 183 7560007
402 647 176 7822663
401 647 177 7822663
400 647 178 7822663
400 647 179 7691334
399 647 180 7691334
398 647 181 7625542
398 647 182 7625542
397 647 183 7625543
403 648 176 7822662
402 648 177 7822662
401 648 179 7756870
401 648 180 7756870
405 649 176 7888454
404 649 177 7822662
434 655 135 8619668
433 655 136 8751000
436 656 134 8422286
436 656 135 8553874
435 656 136 8685206
437 657 135 8488081
437 657 136 8619413
446 663 139 6776954
446 663 140 5657956
448 664 139 6711419
448 664 140 5526629
447 664 141 4342094
450 665 138 7566729
450 665 139 6711420
450 665 140 5395301
449 665 141 4210510
406 650 176 7953990
405 650 177 7953990
404 650 178 7888198
408 651 176 8019526
407 651 177 8019526
406 651 178 8019526
405 651 179 7822405
408 652 177 8019525
407 652 178 8019526
406 652 179 7822404
405 652 180 7756612
409 653 177 8019525
409 653 178 8019526
408 653 179 7953733
407 653 180 7822147
406 653 181 7756354
405 653 182 7558975
404 653 183 7427647
409 654 179 7953732
409 654 180 7822147
408 654 181 7756354
407 654 182 7558975
406 654 183 7493182
404 654 184 7361854
408 655 182 7690303
452 666 139 6842749
452 666 140 5855853
452 666 141 4868698
451 666 142 4473678
450 666 142 4473678
452 667 143 4604746
451 667 143 4604746
453 668 144 4276039
452 668 144 4276039
452 669 145 4144195
453 670 146 4012350
451 670 147 5065033
453 671 147 3946814
452 671 148 4998722
453 672 149 5719353
451 672 149 5719353
453 673 150 5127216
452 673 150 5127216
454 674 151 3553588
453 674 151 3553588
451 674 152 4605247
453 675 152 4476752
452 675 153 5265491
452 676 154 6317921
451 676 154 6317921
453 677 155 6383717
452 677 155 6383717
388 754 141 13679010
388 753 142 12099985
387 753 143 11178884
386 754 142 13021336
386 754 143 11573888
383 754 145 11310715
385 755 142 12429196
384 755 143 11771518
383 755 144 11771515
382 755 145 11771515
383 756 143 11771519
382 756 144 11771516
259 17 146 7956578
260 18 146 7758941
261 19 146 7693147
262 20 146 7824220
263 21 146 8021599
263 22 144 8679784
264 23 144 8548197
264 24 143 8810857
265 24 144 8350306
266 24 146 7955290
262 25 141 9995389
263 25 141 9534581
264 25 141 9074030
265 25 142 8679272
266 25 143 8284256
267 25 144 8217434
268 25 145 8151126
261 26 139 10784649
262 26 139 10389891
263 26 139 9863547
264 26 139 9337203
265 26 140 8942445
266 26 140 8613222
267 26 141 8480607
268 26 142 8282712
269 26 143 8347734
270 26 142 8479062
268 27 138 9006436
252 77 116 7038302
252 78 115 7038302
252 79 115 7038302
252 80 114 7038302
252 109 108 5525323
252 110 108 5525324
252 111 108 5591116
252 112 107 5656909
252 113 107 5722702
252 114 107 5722702
252 115 107 5656909
252 116 107 5656909
252 120 105 5655618
252 121 105 5589824
253 123 104 5524031
254 123 104 5524804
254 123 102 5392959
254 123 102 5392959
256 145 103 5984579
253 146 104 6509637
254 146 103 6312516
255 146 103 6115908
256 146 103 6116165
135 481 108 9265242
136 481 108 9002071
137 481 109 8869972
