# .PCD v0.7 - Point Cloud Data file format
VERSION 0.7
FIELDS x y z rgb
SIZE 4 4 4 4
TYPE F F F U
COUNT 1 1 1 1
WIDTH 1227
HEIGHT 1
VIEWPOINT 0 0 0 1 0 0 0
POINTS 1227
DATA ascii
-14.761541 -4.5108838 18.769842 6961187
-14.61441 -4.474391 18.617992 6961443
-14.471636 -4.4390941 18.471125 7092773
-14.629683 -4.4961152 18.708387 7027237
-14.061073 -4.3545151 18.119186 6961444
-12.783209 -4.1919112 17.442591 10640696
-12.676001 -4.1652131 17.331501 11694155
-12.805779 -4.2164369 17.544643 11957574
-13.580498 -4.651731 19.355909 8025199
-13.827161 -4.7462878 19.749363 7894648
-11.14443 -4.705647 19.580256 5537471
-10.645362 -4.5185499 18.801739 5471935
-10.889319 -4.6465268 19.334255 5603520
-10.783248 -4.6504192 19.350451 5471934
-9.275423 -4.0986638 17.05459 5472189
-8.8740234 -3.9646881 16.497114 5472188
-8.7936525 -3.9396801 16.393055 5275067
-10.567432 -4.7740941 19.865061 5341117
-9.3959961 -4.329659 18.015762 5341116
-9.5862408 -4.442678 18.486036 5341373
-8.6173277 -4.005136 16.665421 5275324
-9.5956154 -4.4726949 18.610939 5209788
-9.0170975 -4.2152038 17.539513 5341117
-8.3040218 -3.962152 16.486565 5406141
8.944768 -3.6889391 15.34972 4605001
10.777153 -4.4333162 18.447083 4144709
11.618209 -4.7191868 19.636593 3881021
11.971358 -4.8022361 19.982159 4341570
10.85449 -3.797621 15.801944 6046780
12.534613 -4.151576 17.274757 6832179
12.500774 -4.1318941 17.19286 6897715
15.037057 -4.5595741 18.972441 6569528
10.997779 -3.3099129 13.772589 6438454
10.905208 -3.2457581 13.505635 6175798
13.010449 -3.109982 12.940672 4471872
13.094288 -3.1207831 12.985616 4668993
13.12668 -3.123893 12.998555 4735043
-15.975914 -4.3203311 18.088966 8084556
-16.010199 -4.3369098 18.158382 8150092
-15.982495 -4.3367262 18.157612 8215116
-15.830965 -4.3322339 18.138803 9529690
-15.822514 -4.337317 18.160086 9792605
-16.90131 -4.754868 19.908344 3672580
-15.001736 -4.4301438 18.548746 6961446
-14.414582 -4.3858809 18.363422 6961187
-14.586311 -4.506485 18.868382 6895394
-12.875593 -4.1960602 17.568649 10904122
-12.811594 -4.1922288 17.55261 11825988
-13.54499 -4.601079 19.264439 8222580
-13.647391 -4.6456971 19.451252 8419702
-12.925075 -4.5947361 19.237883 6448229
-13.347029 -4.7764769 19.998825 6117983
-11.651787 -4.578166 19.168505 5537722
-11.407427 -4.7619648 19.938061 5406142
-11.320876 -4.7381601 19.83839 5471935
-11.236895 -4.7153082 19.74271 5471935
-11.220809 -4.720902 19.766132 5537728
-10.639467 -4.488081 18.791328 5471935
-10.791327 -4.5641379 19.109772 5471935
-11.041321 -4.6822109 19.604137 5406398
-10.075335 -4.4004788 18.424543 5406653
-10.196178 -4.4654112 18.696409 5341116
-10.618293 -4.663002 19.523706 5406909
-10.800364 -4.7559719 19.91297 5406909
-9.8669872 -4.3569112 18.242126 5275067
-9.8794279 -4.3744411 18.315521 5406652
-8.931859 -4.0902982 17.125834 5406910
-9.6769247 -4.456933 18.660912 5209531
-9.279295 -4.2984681 17.997427 5275323
-8.5601187 -4.0352082 16.895172 5340349
-7.6173439 -3.688292 15.442656 5406142
-7.3738642 -3.6474321 15.27158 5406398
-7.2346201 -3.5896201 15.029523 5406398
8.9656563 -3.6746559 15.385566 4538695
11.881101 -4.772078 19.980404 5525845
10.797534 -3.7542989 15.719027 5914684
13.12183 -4.3458948 18.196001 6766385
12.811112 -3.0433691 12.742403 4011833
13.06564 -3.094672 12.957207 4472385
13.038285 -3.083642 12.911024 4012862
-14.656064 -3.9320841 16.566629 7426883
-14.871272 -3.996546 16.838219 6966589
-14.736749 -3.967078 16.714067 6768441
-14.712236 -3.967176 16.714479 6701622
-14.905976 -4.026226 16.963266 6636086
-15.047864 -4.0783648 17.182941 6702649
-15.022969 -4.0785489 17.183716 6637112
-15.580982 -4.2958579 18.099281 6701623
-15.313624 -4.2294559 17.819515 6964021
-16.505268 -4.566483 19.239477 10319207
-16.458832 -4.601532 19.387144 6700856
-16.886631 -4.7460961 19.996216 6238502
-16.323368 -4.628571 19.501064 7027239
-15.36002 -4.4829359 18.887478 6895393
-15.324726 -4.4808359 18.878628 6961186
-14.670437 -4.4783678 18.868231 6961444
-14.506972 -4.4540448 18.765753 6895650
-12.725563 -4.189383 17.650679 11957322
-13.784328 -4.6532021 19.604839 8551547
-13.764503 -4.6563659 19.618168 8288117
-12.770904 -4.3759351 18.436659 16711422
-12.74711 -4.3771868 18.441933 15003361
-13.038451 -4.4868898 18.904135 8287332
-13.557699 -4.6959758 19.785053 5325392
-12.555887 -4.5986662 19.375069 5723732
-10.502027 -4.3909578 18.499954 5537727
-10.970368 -4.6109509 19.426826 5471935
-10.637593 -4.6170998 19.452732 5341117
-10.108409 -4.4114261 18.586189 5275323
-8.4555998 -3.7413099 15.762861 5209787
-9.28512 -4.1197729 17.357401 5275324
-9.6580944 -4.3953152 18.518309 5209531
-6.8832598 -3.2056921 13.506199 5209531
-0.68399101 -1.692748 7.131876 5932996
1.591321 -0.96660501 4.072494 16645887
6.9962649 -2.8642449 12.067619 6250861
8.9036236 -3.626493 15.279114 4276544
9.4058619 -3.8212979 16.099865 3487800
12.738521 -4.2541118 17.923393 6635313
13.767141 -4.2017021 17.702579 6569781
10.560344 -2.71401 11.43465 4342348
10.088793 -2.5001571 10.533646 3813943
11.534274 -2.853935 12.024179 4010550
-14.355621 -3.8273289 16.227022 6833718
-14.526738 -3.8794761 16.448114 6438960
-14.462666 -3.8688841 16.403208 6044202
-14.438253 -3.8688841 16.403208 6109225
-14.656655 -3.9340589 16.679535 5911846
-14.631832 -3.9340589 16.679535 5780773
-14.51469 -3.9225271 16.630642 4793879
-15.374912 -4.2124619 17.859903 5845797
-15.122252 -4.150413 17.596828 5646620
-16.455357 -4.5319901 19.21463 9594972
-16.801006 -4.684166 19.859825 6897974
-16.143154 -4.548769 19.285767 7421483
-14.528749 -4.4327612 18.793921 6895394
-14.644837 -4.476799 18.980629 6764065
-13.69768 -4.5949578 19.481602 8880508
-13.980786 -4.6998768 19.926432 8946044
-12.302447 -4.180007 17.7223 13024962
-12.176322 -4.1460419 17.578295 16579579
-11.973793 -4.0858588 17.323133 16580348
-12.348104 -4.2226782 17.903217 9869721
-13.374645 -4.6035242 19.51792 1643032
-13.421922 -4.6298518 19.629541 2760998
-12.572125 -4.5652571 19.355675 5130569
-12.542922 -4.5651121 19.355061 5591634
-12.30734 -4.4896798 19.035246 5130824
-12.389604 -4.530118 19.206692 4341307
-10.948369 -4.5369802 19.235785 5471934
-10.401114 -4.3214979 18.322191 5340348
-10.389874 -4.4935341 19.051582 5406909
-10.275948 -4.4686508 18.946085 5209787
-10.322507 -4.538713 19.243134 5275324
-10.43417 -4.600574 19.505409 5209788
-8.7728653 -3.9006369 16.537832 5341116
-10.017894 -4.479342 18.991411 5341117
-9.9896488 -4.517695 19.154024 5275581
-9.5550528 -4.3584671 18.478928 5340860
-9.0130758 -4.1350498 17.531694 5406652
-6.9353681 -3.209707 13.608444 5340860
-7.7861791 -3.700726 15.690255 5275326
3.9681129 -1.614345 6.8444619 6185066
8.8324909 -3.5749619 15.157045 4145728
9.1695728 -3.701942 15.695412 4277574
12.130795 -4.0257549 17.068308 6635313
13.082061 -3.452275 14.636876 8948363
12.09049 -3.033994 12.863461 4144708
12.313297 -2.8929379 12.265414 3748405
-13.973249 -3.8042741 16.231695 5976611
-13.91138 -3.7939889 16.187811 6961446
-14.221982 -3.885427 16.57795 8079929
-14.202483 -3.886843 16.58399 9067339
-16.630512 -4.656527 19.868 7160110
-13.573581 -4.5055251 19.223722 8813436
-13.916788 -4.6488419 19.835215 8813435
-12.395009 -4.1938739 17.894001 16186106
-12.32583 -4.1794472 17.832445 16646143
-12.606531 -4.507555 19.23238 6054504
-12.440684 -4.6159382 19.69482 8480876
-11.764368 -4.5922079 19.593571 5537460
-11.414611 -4.5922732 19.593849 5406142
-11.180327 -4.6159382 19.694822 5603520
-11.067844 -4.605721 19.65123 5406142
-10.464716 -4.4248919 18.879688 5537724
-10.620281 -4.5394249 19.368362 5275581
-10.489171 -4.4955859 19.181314 5341373
-10.542995 -4.5936651 19.599789 5275324
-10.411785 -4.5490808 19.409565 5275324
-10.664543 -4.685514 19.991684 5340860
-9.7772388 -4.3937359 18.746754 5537725
-9.4800501 -4.284637 18.28126 5603518
-9.6902828 -4.3922601 18.740454 5537981
-8.7546654 -4.0027399 17.078489 5406139
-8.768033 -4.055953 17.305534 5406141
-8.7636585 -4.0899711 17.450678 5406142
1.806957 -1.397963 5.9646902 15136758
10.478255 -4.2143269 17.981268 4079427
10.340434 -3.7302001 15.915644 2762025
11.03845 -3.758177 16.035011 6176822
10.6969 -2.9016671 12.38054 8686474
10.299172 -2.6565039 11.334506 4605775
11.522436 -2.815253 12.011839 4339258
-16.287821 -4.5722609 19.633131 7027497
-13.854882 -4.5987749 19.746983 8880250
-13.510689 -4.6116958 19.802465 4335403
-13.377341 -4.5761619 19.649881 3546145
-11.828271 -4.3608432 18.725311 14341322
-11.910427 -4.4015021 18.8999 8354929
-12.20611 -4.6536422 19.98258 6047310
-12.104055 -4.6487122 19.961409 9146794
-11.015228 -4.554719 19.55781 5472191
-10.077588 -4.2341418 18.181259 5472702
-10.500522 -4.435658 19.046566 5275580
-9.3836966 -3.9854031 17.113186 5341116
-9.8549442 -4.2314892 18.169867 5209531
-9.5449715 -4.1438751 17.793657 5275324
-10.07978 -4.3882322 18.84292 5275324
-9.2641935 -4.0444188 17.366598 5209787
-9.5611954 -4.1857581 17.973499 5209787
-10.249173 -4.5635481 19.595718 5275581
-9.9490566 -4.4425588 19.076195 5209788
-9.5349951 -4.2698512 18.334597 5209531
-9.6957045 -4.354279 18.697124 5275324
-9.3584232 -4.2149048 18.098656 5275323
-9.0141525 -4.1071339 17.635895 5275580
-9.0784893 -4.1728988 17.918285 5406397
-8.7276039 -4.0234342 17.276485 5406143
-8.6125984 -3.993948 17.149878 5406142
-8.001811 -3.7552199 16.124786 5340349
9.8586254 -3.9399359 16.91795 4079429
12.27688 -4.578938 19.661806 4275777
11.887838 -4.2417459 18.213913 2828842
11.819118 -4.0157762 17.243605 4270630
10.919178 -3.6939631 15.86175 6111028
10.800168 -3.5839679 15.389437 6636084
12.162296 -3.9358251 16.900297 6766129
12.245609 -3.9464631 16.945976 6700336
13.110567 -3.9793551 17.087214 6701365
13.225806 -3.893501 16.718557 5717816
-16.382818 -4.5128689 19.502737 12950405
-16.602901 -4.5816112 19.79981 9067077
-14.012221 -4.4152389 19.080822 9655097
-13.666325 -4.4044328 19.034121 3611931
-13.845175 -4.566185 19.733147 8684155
-13.983777 -4.6216998 19.973061 8157816
-13.615723 -4.5096431 19.488792 8420733
-12.355476 -4.1362939 17.875336 16580607
-11.086536 -4.230711 18.283367 9863566
-10.936797 -4.4580498 19.265829 5669314
-11.247364 -4.608808 19.917343 5537727
-11.199283 -4.6134219 19.937284 5537728
-11.114648 -4.6152411 19.945145 5406911
-9.7579145 -4.117856 17.795652 5341116
-10.933378 -4.6264601 19.993628 5275324
-10.696334 -4.588594 19.829988 5275324
-10.411192 -4.5287471 19.571354 5275324
-9.944809 -4.4122839 19.06805 5341117
-9.4726038 -4.2148051 18.214626 5275324
-9.1115255 -4.1129951 17.774647 5209787
-9.0026894 -4.0756979 17.613466 5407166
-8.5775023 -3.9059529 16.8799 5341116
-8.5175076 -3.8900261 16.811069 5340605
-4.4270201 -2.4370539 10.53193 5537471
-2.148638 -1.872184 8.0907993 5603775
9.4231329 -3.741828 16.17062 4145221
11.035609 -3.7337091 16.135534 3482396
11.848276 -3.9999571 17.286146 4073761
10.759822 -3.555301 15.36453 6701106
11.262352 -3.7134581 16.048016 6701620
13.338198 -4.118434 17.798153 6766898
10.381665 -2.643775 11.425292 4605775
12.732045 -3.1345069 13.546033 4012866
12.721585 -3.126981 13.513507 4012609
-14.911651 -4.0241618 17.503323 10051138
-13.992387 -4.3806329 19.053814 10115906
-12.938523 -4.0754752 17.726511 11694664
-13.586296 -4.4238372 19.241732 8683131
-13.539687 -4.4367151 19.297745 8617849
-13.998567 -4.5968318 19.994183 8092283
-13.046143 -4.4349089 19.289892 3082765
-13.054273 -4.4474602 19.344481 4074800
-10.76895 -4.083086 17.759619 8281949
-11.859007 -4.574986 19.899162 5669051
-9.5534306 -3.994791 17.375572 5406910
-10.94123 -4.5875211 19.953682 5406910
-10.372292 -4.3608069 18.967581 5341117
-9.6941643 -4.1433611 18.021784 5275324
-9.5626907 -4.121376 17.926157 5341117
-9.6144094 -4.1552582 18.073532 5341116
-9.9022675 -4.3403821 18.878738 5406910
-8.9415846 -4.0219998 17.493917 5341117
-8.6589479 -3.917681 17.04018 5341115
-8.1280069 -3.7321129 16.233038 5340605
-6.4307489 -3.1394119 13.655052 5537727
-6.2191501 -3.055423 13.289737 5472191
-2.231199 -1.5565341 6.7702351 3421244
-2.22317 -1.557969 6.776474 3223865
4.8664761 -1.919999 8.3511438 3882049
12.298974 -4.5611649 19.839048 4670278
12.179971 -4.3600302 18.964197 2170915
10.511682 -3.7112391 16.142246 2696746
12.772367 -3.9183581 17.043123 6700596
13.828547 -4.0493808 17.613012 6900028
11.752187 -2.8746669 12.50353 4078659
11.734221 -2.8657351 12.46468 4012609
-14.684216 -3.830081 16.767696 5386019
-16.299288 -4.4637389 19.541784 12359552
-16.534748 -4.5363159 19.859522 6964273
-16.199875 -4.550179 19.920208 7027239
-14.19181 -4.3788099 19.169975 7025691
-13.826261 -4.3006029 18.827595 9852478
-13.808819 -4.5051699 19.723166 7894899
-13.240674 -4.5216522 19.795324 11709357
-12.390709 -4.5448709 19.896973 5132618
-9.0833683 -3.7736471 16.520634 5406909
-10.55925 -4.3987021 19.257059 5341373
-10.571834 -4.4400959 19.438282 5275323
-10.628201 -4.5131698 19.758188 5275324
-9.9507399 -4.3457251 19.025133 5209787
-8.4550285 -3.8343461 16.786369 5471935
1.806 -1.368457 5.9909611 15137530
7.7844019 -3.0513439 13.358467 3684925
11.283384 -4.4116149 19.313591 4079941
9.6686935 -3.7706921 16.507698 4143681
12.23902 -4.5422621 19.885551 5262672
12.259143 -4.5387559 19.870201 4735814
10.364756 -3.6356781 15.916619 2762795
11.972161 -3.9984729 17.504898 3350301
11.915565 -3.9709301 17.384319 3744544
13.441123 -4.1049819 17.971184 6700850
10.492203 -2.847419 12.465703 2036758
12.111988 -3.218708 14.09117 3816253
-11.935092 -3.0718639 13.536495 5583144
-14.210516 -3.663698 16.144478 5386275
-16.168747 -4.52842 19.954966 6895396
-14.020053 -4.3237071 19.052876 9061157
-13.754313 -4.25035 18.72962 10970182
-13.665756 -4.4294472 19.518829 7565935
-12.022138 -4.0697222 17.933662 4796466
-12.091737 -4.1023898 18.077618 6701635
-11.461002 -4.1764679 18.404053 12895675
-11.53263 -4.2126369 18.563435 8023651
-11.014342 -4.4030318 19.40243 5472191
-9.1882143 -3.7923341 16.711325 5472702
-10.320645 -4.2712941 18.821913 5341117
-10.251225 -4.2541099 18.746189 5406910
-10.274267 -4.2870059 18.891151 5341117
-10.628925 -4.5216012 19.924915 5406910
-9.5261898 -4.1568642 18.317665 5341117
-9.0633163 -3.966234 17.477634 5209787
-7.5701599 -3.3223431 14.640258 5341117
10.052764 -3.9148271 17.251102 3947582
9.2183552 -3.571641 15.738819 4275522
12.272615 -4.5141392 19.892036 4012348
10.158529 -3.6060541 15.890459 2563875
11.922303 -3.955878 17.431999 3350554
11.973483 -3.9642341 17.468819 3679005
10.803411 -3.5082841 15.459627 6504754
13.904196 -4.21874 18.590324 6766642
10.181262 -2.7450321 12.096277 2036758
12.091486 -3.1923239 14.067318 3948352
-12.584546 -3.2177789 14.273091 5385764
-13.500772 -4.3472729 19.283182 7434605
-12.354537 -4.0295758 17.873976 14541278
-12.274869 -4.0122299 17.797035 10197138
-12.944657 -4.3532739 19.309803 2758173
-11.120399 -4.416275 19.589254 5603521
-10.609653 -4.3502989 19.296606 5407166
-9.6247482 -4.1963449 18.613714 5341116
-8.6447821 -3.812983 16.913233 5275324
-9.1008959 -4.085537 18.122202 5406398
-7.4779978 -3.448981 15.298632 5472191
10.325876 -3.994813 17.719778 4275011
9.5400867 -3.6814101 16.329615 4472647
8.9076843 -3.428638 15.2084 4012864
12.031522 -3.957325 17.553495 3678750
10.427106 -3.3638771 14.921137 6439217
12.926456 -3.896358 17.283058 6766899
13.778364 -4.0018468 17.75098 6242103
10.613231 -2.842732 12.609495 2036758
10.043015 -2.4476409 10.856995 4013384
-12.800573 -3.33587 14.895235 8538678
-16.457392 -4.418942 19.731342 10383705
-16.169493 -4.3494 19.420822 12160115
-12.830239 -3.9127901 17.471285 11167818
-12.230972 -3.96294 17.69521 13750986
-12.004042 -3.897804 17.404369 9078912
-13.368541 -4.4661469 19.94212 7029821
-12.903451 -4.3299961 19.334181 2231309
-11.784219 -4.473104 19.973181 6259125
-11.610736 -4.4183969 19.728907 5865143
-10.987908 -4.463573 19.930622 5341373
-10.130478 -4.3010302 19.204842 5341117
-9.7299757 -4.2263842 18.871534 5275324
-9.630517 -4.195292 18.732702 5341116
-8.5094843 -3.817451 17.045578 5406142
-8.1593037 -3.738368 16.692459 5537728
-2.6605711 -1.531394 6.8379378 5603764
-1.4879709 -1.703518 7.606503 5669568
0.75357801 -0.80109501 3.5770271 9083043
0.75684702 -0.798926 3.567344 10201524
9.6530294 -3.7098529 16.565136 4537669
10.187933 -3.905453 17.438522 4406598
8.8691483 -3.3912699 15.142606 3880510
11.986668 -3.9165461 17.488054 3612957
10.42801 -3.34196 14.92243 6438709
-12.32561 -3.120496 14.026764 5320481
-12.326025 -3.125895 14.051034 5254945
-12.318039 -3.129178 14.065792 5320223
-14.169391 -3.605608 16.207367 5319710
-12.754441 -3.30176 14.841554 8538164
-12.64141 -3.82184 17.179337 10048562
-12.436444 -3.767493 16.935043 11167817
-11.996821 -3.8612421 17.356449 13222837
-11.785306 -3.8013489 17.087229 8222827
-12.656587 -4.4365849 19.942644 4275776
-12.402107 -4.367867 19.633751 5196878
-12.441504 -4.4024858 19.789366 5920600
-12.531497 -4.4448519 19.979805 5262408
-10.950123 -4.430624 19.915846 5406909
-10.273645 -4.3206382 19.421457 5275323
-10.152628 -4.2817898 19.246834 5275324
-9.1917677 -3.8985529 17.524166 5341373
-7.6883879 -3.2795269 14.741616 5341116
-8.9329662 -3.8433101 17.275846 5406910
-9.2244883 -3.980191 17.891129 5275580
-9.4521542 -4.09023 18.385761 5275580
-2.5002489 -1.43504 6.4505692 5604023
0.75427902 -0.79651201 3.5803559 5923690
0.75967699 -0.79658502 3.5806849 6054762
0.75577301 -0.78697097 3.5374689 7437956
8.9371672 -3.4119079 15.336676 4472389
8.7513647 -3.323997 14.941511 3813690
9.9929075 -3.785948 17.017998 2827053
11.936455 -4.144166 18.628208 2235680
12.322571 -4.2683072 19.186226 2499366
11.995118 -3.8932631 17.500383 3678750
11.034696 -3.5128901 15.790594 6504502
12.996256 -3.968328 17.837805 6700593
12.059016 -3.1594059 14.201667 1906714
13.498178 -3.343101 15.027383 4671565
10.268364 -2.3450191 10.540963 2759970
-12.294453 -3.0865581 13.96765 5320227
-11.577049 -2.9113741 13.174889 5254688
-11.65046 -2.9348061 13.280924 5386532
-12.61249 -3.1825449 14.402022 5386017
-12.723121 -3.2716191 14.805109 8735802
-12.665369 -3.803468 17.211895 10443059
-12.269183 -3.691958 16.707279 11496523
-11.885334 -3.799768 17.195154 12366242
-11.834355 -3.7916341 17.158344 6314315
-12.299324 -4.1090679 18.594833 1180419
-12.264666 -4.106729 18.584249 4602941
-12.429793 -4.3483319 19.67758 4869196
-12.539064 -4.3969178 19.897446 5461333
-12.310431 -4.3269639 19.580883 5658455
-12.364657 -4.3563361 19.7138 6183771
-12.398861 -4.378777 19.815351 5789271
-12.210209 -4.322433 19.560379 6512734
-11.551207 -4.1585469 18.818741 11511711
-11.6838 -4.2165051 19.08102 4603959
-9.319931 -3.8076291 17.230728 5407166
-9.4168167 -3.857826 17.457884 5472703
-9.5449762 -3.921149 17.744438 5406910
-10.657692 -4.4026222 19.923258 5604289
-10.471713 -4.349999 19.685123 5341373
-9.1294441 -3.8353341 17.3561 5406910
-6.7026758 -2.8399401 12.851625 5406910
-9.6507397 -4.1125121 18.610416 5406910
-9.5064631 -4.0626898 18.384956 5406910
-8.7017279 -3.7952411 17.174667 5406654
-8.18853 -3.635483 16.451712 5406398
0.037409998 -1.561471 7.0661521 3355956
8.7887602 -3.3328061 15.082001 4144708
8.4235392 -3.178077 14.381803 3485496
9.4193964 -3.544791 16.041304 2235942
10.420298 -3.911546 17.700983 2433061
10.531735 -3.943408 17.845169 2169634
12.111527 -4.1768198 18.90143 2301474
11.969711 -4.1183472 18.636824 2630695
12.011795 -3.8725941 17.524714 3678750
10.968813 -3.5134511 15.899479 5718071
12.766338 -3.895921 17.630274 6700849
12.697281 -3.8511009 17.427452 6831922
13.883307 -3.9149389 17.716339 2955291
13.14062 -3.24352 14.677957 4605773
13.274633 -3.244241 14.681215 4474189
12.747623 -2.9923129 13.541165 3946816
-11.542104 -2.8781631 13.112911 5386020
-11.564988 -2.8887539 13.161163 5320481
-12.566529 -3.144248 14.325195 5320483
-14.26777 -3.619031 16.488304 5255203
-12.729818 -3.2512951 14.812901 8801082
-12.845841 -3.8316841 17.457153 10640693
-12.155673 -3.633167 16.55271 11628109
-12.988881 -3.890085 17.72323 11825992
-12.028279 -3.8195701 17.40196 12034968
-12.045276 -3.83322 17.464153 5457981
-12.650264 -4.1978512 19.125406 3741980
-12.625246 -4.1989961 19.130625 3547687
-12.751044 -4.3893089 19.997692 5132876
-12.580257 -4.3713298 19.915779 5461331
-12.457278 -4.3490911 19.814459 5592918
-12.498688 -4.384305 19.974892 5987418
-12.425216 -4.3689232 19.904816 5986389
-11.985517 -4.2858429 19.5263 16645629
-12.027885 -4.3114471 19.642952 12368052
-10.673912 -4.3077202 19.625973 5341373
-9.4063673 -3.8275931 17.438513 5341373
-8.5046673 -3.470252 15.810469 5407166
-9.1020708 -3.7243209 16.968008 5407166
-8.8470993 -3.6606171 16.677773 5407166
-7.251955 -3.0607109 13.944597 5472703
-10.023588 -4.2426281 19.329414 5406910
-9.3572054 -3.971972 18.096302 5341373
-7.1124778 -3.054287 13.915331 5472702
-8.775465 -3.801625 17.320202 5538239
-8.3733902 -3.6925189 16.823118 5669314
8.5327082 -3.2139161 14.642601 4276041
9.564621 -3.5934179 16.371611 4078404
8.2388649 -3.087467 14.066501 3485495
8.7386713 -3.2664671 14.882025 2367271
10.374919 -3.868283 17.623899 2433062
12.003997 -4.38696 19.986988 4801611
12.011662 -4.3789101 19.950315 4933197
12.749928 -4.3572469 19.85162 2565415
10.911433 -3.4715331 15.816306 5324340
12.523369 -3.7960351 17.294733 6635056
13.160718 -3.226603 14.700405 4605773
13.433705 -3.2771881 14.930868 4539980
13.544378 -3.234632 14.736982 4079431
12.753078 -3.030931 13.808924 4144969
13.528703 -3.2100959 14.625196 4013383
12.051164 -2.8097789 12.801352 4012354
-11.62552 -2.879308 13.207679 5386020
-12.485465 -3.0975289 14.208682 5386274
-12.736506 -3.230947 14.820684 8932668
-15.988371 -4.247097 19.481871 11044206
-16.372982 -4.3571649 19.986763 14004634
-14.768279 -3.9516599 18.126671 13479318
-12.786326 -3.7880721 17.376274 10575415
-12.191324 -3.6191161 16.601257 11759696
-12.892308 -3.8349819 17.591457 11760711
-13.802065 -4.3159461 19.797686 12237753
-13.65735 -4.279829 19.632015 15724527
-12.077061 -3.809057 17.472536 11047302
-12.12747 -3.833209 17.583324 5326911
-12.922634 -4.2591572 19.537189 5978682
-12.882742 -4.2555838 19.520802 3744288
-12.87735 -4.2634182 19.556734 1575176
-12.906713 -4.2828188 19.645729 1245441
-12.657768 -4.3276572 19.851404 4537919
-12.452325 -4.317884 19.80658 6118234
-11.703569 -4.3244038 19.836487 8085346
-11.726544 -4.3438501 19.925688 9927556
-9.7888899 -3.967185 18.197882 5407166
-8.2653837 -3.4255669 15.713426 5472703
-9.2061443 -3.848125 17.651743 5472703
-7.5420318 -3.161556 14.502379 5604289
-9.0138216 -3.867048 17.738544 5407166
-7.6509242 -3.3813789 15.510733 5537728
-0.79320198 -1.582064 7.2570891 5999041
1.710174 -0.86515498 3.968555 16775935
8.4787817 -3.1719501 14.550061 3683904
8.8545532 -3.30409 15.156198 4012610
8.242342 -3.067827 14.072437 3617337
8.327692 -3.0917389 14.182122 2433321
10.534465 -3.9011381 17.89492 2433064
12.038176 -3.8371539 17.601419 3547420
10.856149 -3.4305251 15.73617 4995889
12.635381 -3.8515129 17.667286 6372658
12.07828 -3.485847 15.989936 6176048
13.975601 -3.375102 15.48194 4276811
13.471272 -3.231993 14.825483 4276810
13.180482 -3.1365421 14.387638 4079431
13.667032 -3.24705 14.894553 4079432
14.920543 -3.5220129 16.155836 4013638
14.907141 -3.5131891 16.115356 4013637
12.946658 -3.046257 13.973495 3882052
-11.747107 -2.88956 13.345814 5254689
-16.292593 -4.329771 19.997622 15976107
-14.343878 -4.1950479 19.375385 7419164
-13.436612 -4.181911 19.314711 15724526
-13.18538 -4.287149 19.800768 9394503
-13.11292 -4.3117719 19.914492 6042412
-10.640439 -4.2947388 19.835821 5472703
-9.0802479 -3.675204 16.974417 5472703
-10.179517 -4.1316252 19.082457 5341373
-8.5285454 -3.5005989 16.16798 5406909
-7.7857599 -3.2047589 14.801606 5406910
-8.9450436 -3.7455249 17.299204 5341117
-7.644681 -3.3555551 15.498075 5537728
9.0582705 -3.3656051 15.544494 3683900
9.113842 -3.3776269 15.600019 3815487
8.3224869 -3.0765109 14.209272 3486522
9.5529833 -3.522429 16.268805 2499370
10.256256 -3.4736099 16.043327 2563363
10.791989 -3.38697 15.64317 5324343
12.534955 -3.794817 17.526867 6372658
13.229109 -3.188786 14.72783 4474187
14.402954 -3.4488759 15.929092 4342603
14.63386 -3.49841 16.157871 4276811
13.447988 -3.1783531 14.679645 4079433
13.424322 -3.167614 14.630044 4013637
14.386344 -3.383637 15.627777 4145222
12.580488 -2.944623 13.60013 4013638
12.501295 -2.921386 13.492809 4013636
-12.655897 -3.0864871 14.354016 5385505
-12.651219 -3.0905631 14.372971 5385505
-12.685677 -3.104229 14.436526 5517088
-14.94776 -3.966814 18.448061 13740693
-14.901477 -3.961808 18.424784 11898489
-14.164198 -4.2244239 19.646101 5714227
-13.199224 -4.2621522 19.82156 10050375
-11.549459 -3.8059821 17.700096 1313549
-11.540558 -3.811743 17.726887 1972505
-8.7704878 -3.525429 16.395359 5341373
-10.428022 -4.2388721 19.713295 5472703
-7.8284311 -3.2001741 14.882729 5472959
-10.295027 -4.2204318 19.627539 5472959
-8.4951792 -3.5947831 16.717894 5407166
0.76079202 -0.672068 3.12552 1842983
0.761998 -0.66904402 3.111454 3816259
1.705899 -1.488753 6.923594 7568000
9.3618374 -3.4544871 16.065434 3552571
9.2594967 -3.40802 15.849333 3946816
9.5835218 -3.518317 16.36228 3617595
10.847534 -3.3810019 15.723684 4929329
12.238645 -3.0510881 14.189387 4013631
13.49621 -3.252362 15.125434 4671566
13.294954 -3.1205859 14.512595 4145223
11.700784 -2.631001 12.235728 3683640
11.643549 -2.601933 12.100549 3945784
-12.674575 -3.069648 14.375198 5451298
-12.65656 -3.0756691 14.403391 5254174
-15.699689 -4.1375241 19.37607 15121313
-15.324831 -4.137527 19.376087 6895906
-12.882763 -3.7999589 17.795252 11760714
-14.225713 -4.2134051 19.731424 4138272
-12.671294 -4.146769 19.419363 4724751
-12.541903 -4.1138072 19.265003 3346188
-10.929989 -4.2335081 19.825563 5472959
-10.975121 -4.262495 19.961311 5472703
-10.681543 -4.1597352 19.480087 5472702
-10.214931 -4.1586142 19.474834 5538495
0.76079202 -0.66741699 3.12552 5789019
8.4507017 -3.096698 14.501873 3551801
8.7752714 -3.207443 15.020494 3618107
10.132578 -3.6941409 17.299704 3617851
10.101021 -3.6733019 17.202116 3420472
10.504902 -3.6623781 17.150957 2891042
12.7035 -3.777252 17.688915 6504244
12.457436 -3.0841379 14.443052 3948094
13.618817 -3.2646389 15.288342 4539980
14.796849 -3.483022 16.311031 4342603
13.474306 -3.140794 14.708374 4145221
13.044885 -2.9129291 13.641279 3815226
12.282409 -2.7256999 12.764482 4077115
11.84987 -2.6256499 12.29595 3814200
-16.049631 -4.184896 19.735458 10318420
-14.528594 -3.8303471 18.063452 13147783
-14.466723 -3.821106 18.019871 10845030
-14.242023 -4.1888371 19.754045 3875098
-12.32631 -4.1281581 19.46789 6908778
-11.797981 -4.1563768 19.600969 11053735
-10.203506 -3.924576 18.50782 5604288
-10.214599 -3.939476 18.578091 5538496
-9.2267408 -3.568146 16.826942 5407166
-10.893967 -4.2243581 19.921556 5604288
-8.9163561 -3.534451 16.668041 5472702
-10.296826 -4.1392498 19.520197 5538752
-10.200488 -4.112124 19.392277 5472702
-10.090689 -4.079402 19.237965 5472703
-9.9921083 -4.051044 19.104227 5604288
-10.381091 -4.2328339 19.961533 5604545
-9.018137 -3.7089391 17.490906 5604288
-9.2437544 -3.8127351 17.980394 5538752
0.700912 -1.571308 7.4101 5197381
7.598599 -2.7650449 13.039618 2961462
8.66924 -3.1466041 14.839001 3552570
9.3915768 -3.4001229 16.034567 3814970
9.5470905 -3.447665 16.25877 3946813
10.859138 -3.7686491 17.772488 2759970
10.524043 -3.6434801 17.182209 2759456
10.195857 -3.5213039 16.606043 2891042
9.1941271 -3.049675 14.381894 2629667
9.4879017 -3.1398101 14.80696 2695719
10.089976 -3.331315 15.710078 2629669
9.9657717 -3.282701 15.480821 2300960
12.587378 -3.7243581 17.563618 6306862
12.849583 -3.79406 17.892326 6306862
12.285382 -3.020344 14.243574 3948351
14.886101 -3.47961 16.409416 4474189
13.157343 -2.9175639 13.758879 3880505
12.399128 -2.732425 12.885783 4077113
11.543649 -2.539973 11.978202 3813940
-15.848835 -4.1110592 19.524281 9658691
-14.212462 -4.150805 19.713047 5256238
-12.526574 -3.799614 18.045166 16448510
-10.107211 -3.870702 18.382776 5538496
-10.143448 -3.895123 18.498755 5406910
-10.745248 -4.2061281 19.975784 5538752
-8.9697714 -3.5306699 16.767895 5472702
-9.9715662 -4.0029521 19.010859 5472703
-10.227295 -4.1408572 19.665802 5538752
7.6085262 -2.749227 13.056654 2895413
8.7676373 -3.1599829 15.007425 3815742
9.2115517 -3.3115411 15.727203 4407365
9.3086863 -3.3379791 15.852765 5065295
9.6268167 -3.426007 16.270828 4341313
9.7531652 -3.4622641 16.443016 3617846
11.939553 -4.1962919 19.929071 2564130
10.765442 -3.7372191 17.748837 2694434
10.374704 -3.5927589 17.062767 2759971
10.732266 -3.7075081 17.607735 2891043
10.866536 -3.7447491 17.784597 2825506
10.710543 -3.682023 17.4867 2825506
9.7446499 -3.3418529 15.87116 2891042
10.194214 -3.4875729 16.563219 2825763
10.204044 -3.4741361 16.499399 2825763
9.4366026 -3.1009159 14.726902 2564133
10.087153 -3.3070099 15.705685 2629413
10.056427 -3.289314 15.621644 2235167
11.478035 -3.694515 17.546024 3090476
13.507416 -3.968529 18.84738 6504241
12.540104 -3.6093769 17.141691 6569266
12.596066 -3.618124 17.183231 6634802
12.614736 -3.587074 17.035769 6503985
14.809 -3.4372931 16.324425 4211017
13.178523 -3.0046251 14.269592 4013639
12.14365 -2.7465501 13.043941 3946817
12.396525 -2.7295649 12.963278 3880505
12.399175 -2.713258 12.885832 4076856
-15.743619 -4.054903 19.394665 9327676
-15.4175 -4.037528 19.311563 14331537
-14.102078 -3.998662 19.125664 9655865
-14.15976 -4.106184 19.639946 4928041
-12.507223 -3.7669301 18.017288 15725298
-12.5696 -4.0833621 19.530787 3415072
-12.585488 -4.098 19.6008 4074286
-10.469785 -4.1497002 19.848083 5472703
-9.8756247 -3.970211 18.989584 5538496
-8.2129402 -3.3890629 16.209944 5472702
7.5173488 -2.697083 12.900189 2960175
7.9125762 -2.831651 13.543831 4341828
9.1319323 -3.2597139 15.591267 4867917
8.8446188 -3.1491539 15.062453 4670280
10.360453 -3.6795449 17.599325 4143934
10.618354 -3.7616301 17.991938 3749177
7.5485659 -2.6674089 12.75826 3419185
9.4359055 -3.325964 15.908141 2827048
11.794465 -4.1365509 19.785192 2630181
11.890476 -4.1598392 19.89658 2564131
11.79364 -4.1157122 19.685518 2629667
11.631822 -4.0491829 19.367306 2563874
12.060978 -4.1675949 19.933678 2825506
10.403848 -3.586164 17.152679 2825507
9.7502565 -3.352648 16.035769 2825507
10.665094 -3.658263 17.49753 2891299
10.388659 -3.5547619 17.002485 2891299
10.534975 -3.5960691 17.200058 2891299
9.8394976 -3.3505299 16.025639 2891299
9.166152 -3.1136961 14.892859 2891299
9.9474688 -3.370954 16.123329 2825506
9.7490816 -3.2957759 15.763748 2759713
9.8818569 -3.324661 15.901906 2759713
9.3268118 -3.0431759 14.55556 2563363
12.016606 -3.8936789 18.623531 2761767
10.709793 -3.2317131 15.457336 5981243
12.773212 -3.7262931 17.82292 6372399
12.952742 -3.6942799 17.6698 6634802
12.667159 -3.598218 17.210335 6372657
13.907806 -3.90328 18.669451 6833727
12.837964 -3.5958409 17.198965 6570813
13.617657 -3.653954 17.476919 2889241
13.205705 -3.109813 14.874286 4605518
13.886724 -3.226912 15.434374 4408394
13.531095 -3.0981519 14.818509 4079430
13.585344 -3.0804491 14.733838 4013638
12.550936 -2.818603 13.481423 4012610
11.967675 -2.616513 12.514821 3880505
11.816001 -2.567369 12.27977 4011319
-12.911997 -3.0502689 14.694082 5452068
-15.857564 -4.0477562 19.499285 9787456
-15.903909 -4.067029 19.592127 9787457
-16.025187 -4.1055689 19.777788 9852993
-15.766003 -4.0615482 19.565723 10182727
-12.520161 -3.7439849 18.035927 15791091
-12.778461 -4.1216631 19.855316 3611672
-10.887964 -4.1444139 19.964914 5472960
-10.68318 -4.0775919 19.643013 5472959
-10.678007 -4.0868011 19.687374 5472959
-10.653707 -4.1113429 19.805605 5407166
-8.6243734 -3.5335081 17.021992 5472958
7.4198952 -2.643168 12.732953 2500393
7.7251911 -2.7449131 13.223087 4341315
8.9399462 -3.168468 15.263481 4932683
8.9089317 -3.149473 15.17198 4275265
9.9731493 -3.5167799 16.941412 3289137
7.5727372 -2.6569021 12.79911 2432546
11.528954 -4.0146489 19.339798 2629667
10.705092 -3.7000501 17.824276 2760226
9.7781973 -3.3713291 16.240726 2825506
11.992838 -4.1246972 19.869934 2759970
11.095729 -3.8067679 18.338371 2891043
9.4550171 -3.2359071 15.588357 2891299
9.0596094 -3.0929921 14.899894 2891299
10.078815 -3.4325521 16.53566 2891299
9.6892366 -3.291836 15.857783 2891299
9.4580975 -3.2055011 15.44188 2891299
9.4660254 -3.2004111 15.417362 2891299
8.3840675 -2.8277531 13.622153 2825250
9.8782911 -3.323683 16.011202 2759713
9.6006231 -3.2224841 15.523698 2825506
10.118555 -3.3800631 16.282801 2891043
10.024225 -3.3325901 16.05411 2759713
10.144893 -3.3096001 15.943358 2563361
9.2439308 -2.994664 14.426215 2563363
12.267795 -3.946775 19.012827 2827048
11.351271 -3.643508 17.551899 4208701
13.848705 -3.859026 18.590115 5650482
13.2159 -3.09006 14.88577 4605517
13.281765 -3.0847759 14.860316 4408394
13.567703 -3.1097629 14.980681 4342600
12.314692 -2.8133221 13.552638 4145222
12.230417 -2.6883931 12.950816 3881021
12.451625 -2.7029409 13.020896 3880249
11.65346 -2.5062759 12.073502 3748405
10.39973 -2.2093871 10.643296 2628384
-12.86614 -3.0176449 14.641897 5583398
-15.617662 -3.9078791 18.961391 9918014
-15.993579 -4.060637 19.702591 9787966
-15.975978 -4.0636191 19.717058 9787967
-14.260854 -3.709115 17.996973 13740176
-14.192447 -3.6982689 17.944347 9528142
-11.300311 -3.9275551 19.056862 10788500
-11.373207 -3.962836 19.22805 5327682
-10.048437 -3.948278 19.157412 5472959
-8.5334721 -3.481425 16.892199 5275327
-8.4669218 -3.4644811 16.809982 5472704
-7.9704161 -3.3003271 16.013494 5538754
-2.988858 -1.693269 8.2158995 2502204
7.3329229 -2.5934589 12.583704 2894126
7.5627928 -2.667944 12.945113 3880508
8.2374458 -2.8985591 14.064077 3946302
8.9800196 -3.151844 15.293042 3485493
8.8055515 -3.0827949 14.958011 2958633
9.8746138 -3.4483531 16.73173 2367009
9.0744591 -3.1530249 15.298775 2629156
10.899383 -3.777638 18.329453 2826020
11.289486 -3.9030759 18.938091 2760226
11.389348 -3.9277949 19.058031 2759970
11.014611 -3.7891259 18.385191 2759971
9.0750818 -3.1141739 15.110263 2759971
10.064103 -3.4450271 16.715591 2891299
11.216538 -3.8300481 18.583748 2825763
9.9383059 -3.3852301 16.425449 2825763
9.0856323 -3.0871949 14.979357 2825763
8.2153912 -2.7846639 13.511451 2825763
8.9999504 -3.0431471 14.765635 2891299
9.360425 -3.157325 15.319636 2891299
8.1360254 -2.7376599 13.283382 2891299
8.7499914 -2.937114 14.251153 2891299
8.7711849 -2.937109 14.251129 2759713
9.2900925 -3.0958979 15.021586 2825506
9.6008654 -3.191782 15.486822 2825250
10.935509 -3.6267741 17.597445 2891043
8.5566101 -2.8310289 13.736419 2759713
9.8416052 -3.24842 15.761637 2759713
9.3237896 -3.0701871 14.896834 2694177
9.7947083 -3.217603 15.612109 2759970
11.109274 -3.632211 17.623825 2694177
8.8831654 -2.8772061 13.960472 2563618
11.773495 -3.7692881 18.288937 2300960
11.924973 -3.8089781 18.481516 2827048
11.620359 -3.7031391 17.967978 3945786
12.650978 -3.571346 17.328503 6372400
13.851374 -3.847471 18.668287 5518895
13.640943 -3.6012149 17.473431 2955291
13.079052 -3.0463519 14.781186 4671819
13.366122 -3.082113 14.9547 4474187
12.591092 -2.800797 13.589729 3947587
12.467693 -2.7468741 13.328091 3947326
14.293606 -3.1193819 15.135531 4078143
12.261162 -2.6716189 12.962944 3946814
11.981606 -2.590328 12.56851 3880505
10.203268 -2.1521089 10.442233 2628128
-15.657769 -3.889622 19.010084 9852478
-15.637393 -3.9780011 19.442026 9722173
-15.893673 -4.0657649 19.870964 10314564
-14.373807 -4.0792441 19.936836 4337705
-12.461048 -3.672878 17.950771 14999768
-12.437057 -3.6736829 17.954704 11055018
-13.26329 -3.943152 19.271706 8607809
-10.696021 -4.0461001 19.774849 5604290
-8.7450914 -3.382556 16.531857 5604289
-10.075118 -3.9526041 19.317902 5472703
-7.8791161 -3.2293079 15.782871 5538754
6.8376999 -2.4008491 11.733874 2959919
7.184083 -2.5160451 12.296882 3419699
8.4251556 -2.943202 14.384562 3090735
8.9739647 -3.1269751 15.282731 2629927
8.45994 -2.9404099 14.37092 2497826
8.5444994 -2.962312 14.477961 2629156
9.4749765 -3.276638 16.014194 2760227
8.9763203 -3.0964041 15.133322 2694691
9.6491537 -3.320169 16.226948 2759970
10.190104 -3.497551 17.093882 2759970
10.573228 -3.620013 17.6924 2825507
9.2542505 -3.160557 15.44686 2891043
7.8010011 -2.657634 12.988884 2891043
10.563508 -3.5898659 17.545059 2891043
10.884139 -3.689708 18.033024 2891043
10.911017 -3.6897211 18.033091 2891043
8.8719559 -2.992821 14.627071 2956579
9.4395247 -3.1610141 15.449095 2891299
9.3460617 -3.1145439 15.221977 2759713
9.2763243 -3.0838289 15.071862 2825506
9.4524527 -3.1122789 15.210908 2891043
8.7237396 -2.865483 14.004722 2891043
9.1231718 -2.9404819 14.37127 2694433
8.8064899 -2.831774 13.839972 2563618
8.8298607 -2.832664 13.844321 2498337
10.108139 -3.2202001 15.738358 2497826
11.382818 -3.617897 17.682058 2366753
11.562353 -3.658047 17.878286 3814455
11.872613 -3.6308751 17.745487 2957349
13.461563 -3.5281961 17.243652 2955291
13.124983 -3.0349751 14.833093 4606027
13.738424 -3.139858 15.345697 4539980
13.698557 -3.05458 14.928909 3947843
13.773947 -3.04179 14.866399 4013637
13.372301 -2.924902 14.295126 3881534
13.279636 -2.8771701 14.061837 3881534
13.311504 -2.8795359 14.073402 3881535
13.500365 -2.8975949 14.161662 3815226
11.71047 -2.474793 12.095268 3353646
-15.712474 -3.9976151 19.68104 9327934
-15.48409 -3.946867 19.431194 7817008
-14.293056 -3.691535 18.174147 12555902
-14.233125 -3.6830261 18.132254 10120274
-14.114309 -3.8803451 19.103693 9850927
-12.969836 -3.580126 17.625658 11496264
-14.114414 -4.0096002 19.740044 9602946
-12.302994 -3.599916 17.723085 14669766
-12.110644 -3.5512469 17.483479 9014399
-13.118957 -3.8718741 19.061989 8870728
-12.513999 -4.0051169 19.717972 3349020
-10.73107 -3.829627 18.854 9268853
-10.755765 -3.8485031 18.94693 9666194
-8.1552496 -3.131464 15.416808 5604289
-9.3643541 -3.721374 18.321051 5407166
-8.351903 -3.4391949 16.931828 5538498
-2.190486 -1.64771 8.1120005 5866947
-2.2085371 -1.670495 8.2241735 5735361
5.9991822 -2.0911069 10.29493 2960434
6.4731312 -2.250562 11.079956 3418930
7.3765159 -2.5581319 12.594183 3089709
8.9751415 -3.1046369 15.284735 2826279
7.7993708 -2.6910999 13.24881 2826019
8.1214275 -2.795156 13.761099 2760227
8.1277933 -2.7833099 13.702776 2759972
8.287014 -2.8307309 13.936241 2891043
8.3905678 -2.8589489 14.075162 2825506
9.1161261 -3.0984349 15.254201 2956323
9.078229 -3.062674 15.07814 3087395
10.632701 -3.578253 17.616436 3087395
9.8805714 -3.316958 16.33003 2956322
8.8970318 -2.929141 14.420731 2825250
9.4153233 -3.055552 15.043079 2694177
10.054321 -3.2551861 16.025915 2694177
9.1643314 -2.960021 14.572762 2694177
9.3688889 -3.0189481 14.862868 2694177
8.5708952 -2.723233 13.407005 2563618
11.536992 -3.6234751 17.839071 3682613
11.360738 -3.527529 17.366716 3419698
11.867836 -3.6030159 17.738348 2827048
11.951787 -3.6204491 17.824179 3090734
12.71116 -3.543736 17.446501 6242099
14.127252 -3.189333 15.701709 4211015
12.375725 -2.72627 13.421958 3947843
12.447446 -2.7332461 13.456305 3947585
13.524184 -2.8815939 14.186648 3815226
-15.754655 -3.9789779 19.733875 9589819
-14.11625 -3.852443 19.106319 10243375
-12.955541 -3.549978 17.606232 11824200
-14.206816 -3.9732001 19.705214 14140608
-14.206882 -4.0062981 19.869366 7827561
-14.101754 -3.984946 19.763472 9341828
-12.277214 -3.566051 17.685949 14208703
-11.945017 -3.477015 17.244371 7171684
-12.544847 -3.9855731 19.766579 3678244
-12.536819 -3.992384 19.800362 327937
-10.326734 -3.8495779 19.092108 5407936
-10.624919 -4.0048108 19.861992 5473215
-10.269242 -3.892405 19.304512 5472959
-9.4114447 -3.7126851 18.413181 5538496
-10.053791 -3.977663 19.727352 5538496
1.8638901 -1.252874 6.2136712 16514814
6.365644 -2.2025859 10.923799 2828337
8.5535889 -2.9371369 14.566828 2892328
7.8861899 -2.7011189 13.39629 2826020
8.1033554 -2.73403 13.559512 2956323
9.3434525 -3.12134 15.480389 3021858
8.7228384 -2.8645699 14.20693 2825763
9.3009596 -3.0396881 15.075435 2825506
8.7247744 -2.837693 14.07363 2891043
8.6101141 -2.7156501 13.468353 2628898
9.4882565 -2.978749 14.773202 2432033
11.355257 -3.540266 17.558064 3484978
11.87552 -3.5709889 17.710438 3025711
10.584858 -3.0869651 15.309904 4862764
11.955549 -3.471766 17.218338 6242360
12.528152 -3.474221 17.230515 6110259
10.890123 -2.473242 12.266124 4539983
10.866196 -2.4554591 12.177932 4342603
13.357822 -2.998493 14.871127 4211018
13.561919 -3.0392721 15.073372 4211019
13.463194 -3.012166 14.938933 4211019
13.810393 -3.0695691 15.223629 4276807
15.141302 -3.3598721 16.663395 4079429
13.936696 -3.0476451 15.114893 3947843
14.059373 -3.0645781 15.198876 3947841
13.537682 -2.8633361 14.200807 3815226
-15.695403 -3.9792631 19.882034 9331785
-15.513162 -3.9404881 19.688297 9859931
-15.629357 -3.992626 19.948803 14596000
-14.090507 -3.6132431 18.053249 12885639
-14.062058 -3.6128371 18.05122 9332819
-13.128356 -3.5707791 17.841082 11824458
-12.942386 -3.6077571 18.025837 15525081
-14.157935 -3.971292 19.842209 8222319
-14.102234 -3.9639361 19.805454 10920088
-12.072012 -3.480567 17.390345 13549233
-11.892195 -3.436089 17.168116 6973534
-12.591392 -3.9801669 19.886553 6895145
-12.488001 -3.96613 19.816416 4532003
-11.073105 -3.5931351 17.952782 6449515
-11.109255 -3.613585 18.054956 4345430
-11.090065 -3.800375 18.988237 9538694
-11.268778 -3.8714819 19.343517 4404786
-9.7210703 -3.773561 18.854261 5538496
-7.2722168 -2.8311279 14.145479 5604545
-9.0296717 -3.546114 17.717844 5604545
-9.2388802 -3.638901 18.181444 5735875
-9.045166 -3.5730669 17.852514 5670081
7.6975632 -2.6370521 13.175796 3286828
6.0781951 -2.076993 10.377514 3023656
7.2575679 -2.4737141 12.359694 2826276
7.8643422 -2.673754 13.359177 2694948
7.916255 -2.684617 13.41345 2694691
8.5541611 -2.893651 14.457871 2825506
8.0134048 -2.7039261 13.509927 2694177
8.2468967 -2.721262 13.596545 2825506
8.7325554 -2.8535111 14.257314 2890786
9.155489 -2.970062 14.839649 2825506
9.7837458 -3.113781 15.557731 2694177
10.039483 -3.187628 15.926702 2694177
12.256541 -3.3807321 16.891529 5913392
12.784404 -3.519115 17.582947 5782323
12.791237 -3.513804 17.55641 5650996
13.173468 -3.6114271 18.044176 5453872
13.017797 -3.561491 17.794674 4928044
13.042124 -3.5609021 17.791733 4138527
13.116761 -3.5596001 17.785227 3217941
13.036898 -2.9291191 14.635084 4408396
13.843724 -3.0744419 15.361175 4145220
14.327715 -3.15587 15.768023 4145222
13.238796 -2.8783071 14.381205 4013636
10.045859 -2.1596761 10.790627 4144449
12.867309 -2.701458 13.497597 3815226
-15.503983 -3.901504 19.639553 8210475
-13.190535 -3.5538261 17.8894 11889477
-12.337116 -3.530551 17.77224 13284772
-12.279982 -3.5217509 17.727942 6051656
-11.768078 -3.7902529 19.079538 12237242
-11.762465 -3.7976091 19.116564 8026234
-10.481205 -3.8284171 19.271645 5407426
-7.6619048 -2.9267659 14.73288 5604289
-9.3442268 -3.6003039 18.123363 5604545
-8.9681044 -3.4754491 17.494862 5604288
-9.2429581 -3.613436 18.189468 5604289
-9.0451899 -3.5465081 17.85256 5472959
1.914977 -1.261952 6.3524652 11318190
6.1169901 -2.085304 10.497094 2827307
8.0596561 -2.740567 13.795585 3286571
5.4687028 -1.854827 9.3369074 2957862
8.3872118 -2.8160801 14.175702 2825506
8.0388374 -2.665586 13.418138 2891299
8.3074789 -2.741046 13.797993 2825506
8.3885069 -2.7339909 13.76248 2825763
9.1853266 -2.9293201 14.745732 2825249
9.0829716 -2.8829019 14.512074 2825249
10.177513 -3.1479681 15.846373 2497826
12.614763 -3.4536681 17.385218 5913138
12.52188 -3.421221 17.221888 5387824
12.93848 -3.520632 17.722305 4335650
12.497166 -3.39363 17.082998 3349015
12.772755 -3.4614251 17.424267 3085586
12.862234 -3.478611 17.51078 3020308
12.950749 -3.4954679 17.595636 3020822
12.97152 -3.494009 17.588293 3152151
13.895291 -3.5158069 17.698021 2758682
10.7838 -2.3968699 12.065466 4276810
13.188704 -2.8786709 14.490776 4145222
13.893264 -3.027503 15.239975 4079429
12.758314 -2.771137 13.949468 4079429
12.073012 -2.592756 13.051522 3947841
10.073465 -2.1460769 10.803011 4013120
11.665603 -2.434752 12.25616 3749690
-12.608358 -2.8338599 14.372878 7759178
-12.571142 -2.8496671 14.453053 7824200
-15.230087 -3.8327701 19.439188 10777951
-15.056502 -3.7962971 19.254204 10582112
-13.59584 -3.460943 17.553347 7360054
-12.376339 -3.8998401 19.77936 2888975
-12.454146 -3.9337139 19.95116 3548195
-11.636609 -3.898561 19.772871 2302498
-10.603197 -3.843961 19.495951 5800633
-10.365837 -3.789016 19.217278 5866429
-10.117064 -3.7922499 19.233677 5538752
-8.1369715 -3.08495 15.646371 5604289
-10.232148 -3.890424 19.7316 5538496
-8.6588945 -3.311254 16.794146 5472959
-9.5214024 -3.6516271 18.52046 5472959
-6.575942 -2.5440841 12.903185 5538496
-9.2498035 -3.5890231 18.202942 5538496
-9.0661602 -3.5280991 17.89395 5472959
-6.950274 -2.8380849 14.394308 5472961
-7.0691962 -2.89557 14.685864 5472961
-7.0950861 -2.924257 14.831359 5472961
-2.668484 -1.3169661 6.6794391 6392766
1.898479 -1.241707 6.297739 5986654
1.920568 -1.220016 6.1877222 15858683
5.8233309 -1.970323 9.9931602 2630185
5.1153159 -1.721971 8.7335567 2957864
5.3571682 -1.798815 9.1232977 2694691
8.0664434 -2.6948669 13.667933 2694690
8.9153795 -2.9123859 14.771151 2825506
8.3437967 -2.6990459 13.689127 2825763
8.7580509 -2.8192811 14.29894 2956065
8.8025503 -2.8199029 14.30209 2759713
9.1723099 -2.8963349 14.689741 2825506
9.2877331 -2.925808 14.839226 2825506
9.3160982 -2.8934629 14.675178 2759714
9.3636913 -2.8946731 14.681313 2694689
7.3929272 -2.2801139 11.56437 2497825
9.3604336 -2.8735499 14.574182 2497826
9.167079 -2.8076861 14.240131 2366240
10.213999 -3.1211209 15.829821 2760742
10.179323 -3.08915 15.667668 4932680
12.385186 -3.372328 17.103903 5847603
12.635719 -3.4334879 17.414099 5978929
12.682076 -3.4390321 17.442211 5058602
12.551915 -3.3967831 17.227932 4137502
12.534065 -3.3850379 17.168364 3413779
11.586426 -3.0243061 15.33879 2954775
14.824378 -3.7227869 18.881372 2890011
13.83024 -3.460016 17.548639 2890269
14.086807 -3.51756 17.840498 2890016
14.300344 -3.5641639 18.076864 3021601
13.46632 -2.9510241 14.967118 4276807
14.448745 -3.1097319 15.772058 4079429
14.425788 -3.0897329 15.670625 4013636
13.787393 -2.9387469 14.904852 3947841
12.959895 -2.684623 13.615974 3684410
12.690125 -2.592262 13.147532 3880247
-12.03435 -2.6753521 13.67215 7562573
-15.394954 -3.845016 19.649618 8407859
-13.355833 -3.374186 17.243479 10779487
-15.368641 -3.9052069 19.957218 5976088
-13.975393 -3.74668 19.147081 12283710
-10.794068 -3.8730221 19.79274 6193843
-10.842008 -3.911572 19.989746 5996981
-10.276366 -3.90013 19.931273 5538496
-6.9926229 -2.6692801 13.641119 5472703
-8.7165842 -3.3565979 17.153603 5472959
-8.8963156 -3.435873 17.558725 5472959
-7.9207578 -3.1233201 15.961452 5604547
-6.9230642 -2.8143101 14.382284 5538498
5.0894728 -1.700339 8.689435 2892070
7.908772 -2.6090901 13.333524 2759970
8.138443 -2.678138 13.686392 2759456
8.8071918 -2.8137 14.37917 2956065
8.5326109 -2.712795 13.863503 2825762
9.434104 -2.9494851 15.073086 2825506
9.1417618 -2.8513069 14.571356 2825506
9.153945 -2.8282709 14.45363 2759714
7.0378609 -2.1693721 11.086387 2694178
9.188859 -2.8191841 14.407194 2629153
7.0683589 -2.1585319 11.030987 2759971
10.062895 -3.030766 15.488465 4998217
12.605713 -3.3994801 17.372746 5913391
12.481946 -3.3592131 17.166964 4663587
12.277758 -3.2975111 16.851643 3676437
12.300663 -3.2969279 16.848663 3215886
14.172486 -3.505635 17.915241 3023140
13.776296 -2.9862859 15.261153 4079431
13.95393 -3.0099051 15.381855 4145479
14.144138 -3.006542 15.364671 4013636
-12.645772 -2.799361 14.415528 7495754
-12.487691 -2.7690649 14.259517 7364939
-14.475714 -3.2153599 16.557749 7430474
-13.555061 -3.1672189 16.309839 10180928
-13.996073 -3.509042 18.070082 8476729
-15.075263 -3.8688159 19.92277 6698528
-14.442392 -3.8424311 19.786898 12415813
-13.971774 -3.724817 19.181232 12153686
-12.873221 -3.4389729 17.709261 12354448
-12.808547 -3.4287159 17.656439 16500941
-14.013637 -3.8298769 19.722248 10396572
-11.330729 -3.550241 18.282242 3614763
-11.371334 -3.5715401 18.391922 7956330
-11.051767 -3.731658 19.216465 8813942
-11.201172 -3.791918 19.526773 4273450
-10.319841 -3.7462659 19.291687 5735102
-10.340708 -3.861264 19.883881 5472959
-10.311244 -3.8613131 19.884129 5472959
-9.712018 -3.657913 18.836704 5604288
-9.587738 -3.621557 18.64949 5538495
-6.8342328 -2.6117229 13.449272 5670082
-8.3169956 -3.254622 16.759928 5538754
-8.1821766 -3.2114961 16.537846 5472705
-6.6953168 -2.7695291 14.261905 5472959
-6.1418629 -2.556803 13.166455 5538495
0.389393 -1.470288 7.5713639 3288873
