# .PCD v0.7 - Point Cloud Data file format
VERSION 0.7
FIELDS x y z rgb
SIZE 4 4 4 4
TYPE F F F U
COUNT 1 1 1 1
WIDTH 1222
HEIGHT 1
VIEWPOINT 0 0 0 1 0 0 0
POINTS 1222
DATA ascii
-2.2487509 -1.818853 5.7819672 7299934
-2.289216 -2.186033 6.9492002 5592147
-2.0096381 -2.632252 8.3676882 2761253
-2.899446 -3.894218 12.379362 3220775
-2.245106 -3.073951 9.7718086 3088676
-1.935518 -3.6078069 11.468887 15269375
-1.654736 -3.6280971 11.533387 658468
-0.55128598 -3.1985371 10.167855 5391178
0.112853 -2.7902989 8.8701048 2307151
0.335527 -3.1460841 10.001114 10275061
0.60720801 -3.246402 10.320016 10271205
0.859891 -1.883301 5.9868398 8754606
0.82782501 -1.740945 5.534306 13426676
0.94226599 -1.962106 6.2373562 14940926
1.295421 -2.645391 8.4094572 14216950
0.87458199 -1.7689101 5.6232009 13887985
2.495023 -3.950593 12.558574 8491431
2.5345931 -3.983422 12.662931 7372951
1.892367 -2.9521451 9.3845978 6320523
1.988205 -3.0789411 9.7876711 7307414
2.602355 -3.9718421 12.626122 9214888
2.997108 -4.5415559 14.43719 6582390
3.022634 -4.5476489 14.456558 6582648
3.222738 -4.814456 15.304716 7832714
3.194612 -4.7389622 15.064725 6253427
2.2216649 -3.2277429 10.260698 8424078
2.2116849 -3.169688 10.07615 7106163
2.4068151 -3.426121 10.891326 7303285
2.356813 -3.33251 10.593742 6644585
2.3369601 -3.2824881 10.434729 5921120
2.274514 -3.173697 10.088893 6447980
2.441637 -3.3845561 10.759194 5461081
2.5641601 -3.508399 11.15288 3553078
1.821777 -2.460794 7.822638 3815480
2.516608 -2.9151959 9.2671413 2629667
2.5893121 -2.9351029 9.3304224 2630180
2.5911131 -2.8604779 9.0931969 3879221
2.3840671 -2.5780721 8.1954556 4010550
1.5564981 -1.3914289 4.4232249 4335653
2.913105 -1.835844 5.8359799 14079970
2.9217141 -1.835799 5.8358369 15725302
3.802819 -1.67691 5.3307428 10510665
-6.0684252 -2.200366 7.027997 12373750
-6.285676 -2.2830729 7.2921648 11453424
-6.713336 -2.4468529 7.8152781 11716339
-8.5434008 -3.124691 9.9803009 12966654
-8.9371672 -3.2743981 10.458469 13361404
-9.0745382 -3.3305261 10.637742 13624826
-9.9286079 -3.689018 11.782767 14678015
-11.058404 -4.1453891 13.240423 2831159
-10.638753 -4.009501 12.806396 10255741
-8.1048689 -3.401751 10.865234 10644578
-8.7074347 -3.7751131 12.057757 10776930
-8.7496786 -3.801259 12.141267 10842723
-8.7329588 -3.8097219 12.168302 10776930
-8.7610836 -3.9446361 12.599218 10512731
-8.709857 -4.016078 12.827405 10709854
-8.6665592 -4.0493431 12.933651 10645344
-8.2681074 -4.0146861 12.822957 11040356
-7.5892601 -3.7990029 12.134064 10646886
-6.8606272 -3.5878689 11.459698 10120295
-6.81003 -3.579196 11.431996 9264728
-2.9597089 -1.645983 5.2572908 15466495
-2.96961 -1.655865 5.2888541 15531775
-3.4023981 -1.902229 6.0757418 15334911
-3.527209 -1.9772609 6.3153958 15465983
-3.411288 -1.9173861 6.124155 15335167
-3.5899999 -2.0232379 6.4622469 14940924
-3.0756531 -2.08512 6.6599011 4407103
-3.0769529 -2.0927441 6.6842489 3814710
-3.84498 -2.8752711 9.183651 197892
-1.958909 -1.491364 4.7634358 3159089
-2.1099541 -1.692048 5.4044232 4077102
-2.0474379 -2.66908 8.5250759 2958378
-2.242069 -2.941021 9.3936596 3154986
-2.3881471 -3.9130721 12.4984 12107223
-2.353873 -3.887176 12.415688 11711952
-1.450511 -2.979903 9.5178471 2502468
-1.1501369 -2.972039 9.4927311 9005426
-0.52961898 -3.544553 11.321347 2366241
0.112324 -2.764096 8.828558 2504273
0.55497402 -3.588129 11.460527 10931447
0.63754803 -3.153316 10.071733 11911122
0.82108498 -1.8085361 5.776485 12439262
0.82639199 -1.782907 5.6946278 9742000
0.865264 -1.741787 5.5632901 14084340
2.4845769 -3.9154501 12.505996 9740984
2.5401161 -3.9732239 12.690528 7175314
2.5059061 -3.8907969 12.427255 6780559
2.5121651 -3.8719511 12.367059 7898779
2.5925131 -3.9667389 12.669815 8490653
2.642148 -4.0135078 12.819194 9279653
2.9169469 -4.3991852 14.05105 8948886
2.9571021 -4.4280138 14.143132 7501953
3.201648 -4.760334 15.204565 6186347
3.2360351 -4.777709 15.260061 5264992
1.7713979 -2.366313 7.5580349 1842467
2.0089869 -2.6172481 8.3595228 4933194
2.081599 -2.5687411 8.2045918 2496799
2.885432 -3.401154 10.863327 4800066
2.498842 -2.5461841 8.1325455 8739415
4.2674732 -2.0480039 6.5413508 10246466
3.941026 -1.729636 5.5244799 10445642
-5.000237 -1.789024 5.7414451 4218255
-6.1943741 -2.235363 7.173862 12375550
-6.3555422 -2.297482 7.373219 11981052
-7.27878 -2.6495149 8.502985 13164542
-8.9480734 -3.268507 10.489491 13690621
-9.9315557 -3.679074 11.807109 15859455
-9.8542633 -3.656909 11.735975 16318463
-11.059849 -4.1262312 13.242153 3160380
-10.695252 -4.0116429 12.874408 10386303
-7.6621432 -3.226388 10.354321 10776929
-9.3748541 -3.9555299 12.694329 10842722
-7.7880888 -3.29266 10.567003 10776672
-7.7920108 -3.3009801 10.593707 10776930
-8.0801458 -3.4369471 11.03006 10776930
-8.6780739 -3.767792 12.091825 10908515
-8.7839165 -3.902729 12.524876 10513758
-8.3133564 -4.0082302 12.863457 10909287
-7.053978 -3.653302 11.724399 10054757
-6.9657569 -3.6165531 11.606463 10054500
-6.7268848 -3.5012119 11.236302 10120551
-7.0006671 -3.652787 11.722745 10120552
-6.73525 -3.5230739 11.306463 9330520
-6.4908009 -3.473269 11.146626 10134454
-2.9573841 -1.636875 5.25316 15532031
-3.3704021 -1.870419 6.0026612 15531775
-3.3914521 -1.8871 6.0561962 15531775
-3.5533969 -1.9824769 6.3622851 15400191
-3.411288 -1.908276 6.124155 15793919
-3.4365101 -1.927532 6.1859541 14809597
-3.0440719 -2.0605431 6.6128192 4868424
-2.0097449 -1.522797 4.887053 3159088
-2.4615541 -1.972144 6.329123 6708823
-1.974413 -2.5616541 8.2210169 2892580
-2.204052 -2.8774171 9.2343826 2893349
-2.388612 -3.895237 12.500833 13882330
-2.362138 -3.8822899 12.459282 13355477
-1.6796221 -3.047482 9.7801647 15072255
-1.659168 -3.566431 11.445606 2633291
0.112393 -2.7526579 8.8339977 2766420
0.63989198 -3.149874 10.108768 14741759
1.246177 -3.323014 10.664417 15071486
1.260989 -3.3202429 10.655526 15005951
1.276893 -3.3203809 10.655969 15071487
1.295985 -3.3287029 10.682676 14809342
0.82108498 -1.799943 5.776485 13821687
0.83345002 -1.789592 5.7432671 9610683
0.96129501 -1.925905 6.1807299 14151156
2.5044279 -3.9279809 12.605914 8095127
2.4513309 -3.8161299 12.246956 6253435
2.5622079 -3.9593129 12.706468 5332076
2.4962461 -3.829134 12.288692 5529195
2.5882311 -3.941371 12.648889 5989739
2.800916 -4.2344661 13.589505 6384241
2.9860849 -4.482058 14.384092 6449521
2.955406 -4.404448 14.13502 5660003
3.1674731 -4.6871428 15.042266 4607055
3.238004 -4.7579012 15.269346 4278089
2.0017591 -2.5024991 8.0311708 2431262
2.6096129 -3.131577 10.050046 2694433
2.4473391 -2.4939311 8.0036755 8148305
2.4921031 -2.5272529 8.1106129 8674133
2.0918391 -2.0712061 6.6470389 8608852
4.2362928 -2.046716 6.5684452 10247516
4.2895508 -2.067677 6.635716 9524056
3.9474001 -1.724202 5.5334148 10511435
-5.000237 -1.780483 5.7414451 3822718
-6.5762391 -2.3537271 7.5899591 12703734
-6.3987322 -2.2941339 7.39779 13493502
-6.5950561 -2.3685949 7.6379018 12178172
-8.6432438 -3.1366179 10.114513 13166077
-8.9402838 -3.250071 10.48036 13494011
-10.77942 -4.002409 12.906391 4079941
-10.552025 -3.9319839 12.679294 10911609
-10.670132 -3.983114 12.844169 10255996
-7.6231108 -3.194628 10.301574 10710883
-8.0101051 -3.439784 11.092119 10776673
-8.7973022 -3.8572891 12.438429 10711137
-8.5164566 -3.7818749 12.195245 10578781
-8.4628305 -4.0055008 12.916361 10908517
-7.0248199 -3.620832 11.675936 10055527
-3.400461 -1.878091 6.0561962 15269375
-3.6457889 -2.024313 6.5277119 15138303
-3.4255459 -1.91221 6.1662192 13558500
-3.8468161 -2.7051351 8.7231293 3553592
-3.8203349 -2.849946 9.190093 1973789
-2.5276339 -1.9060611 6.1463909 3224623
-2.0128069 -2.5990009 8.3808823 2762028
-2.18453 -2.838316 9.1525908 3286314
-2.5654531 -3.3967531 10.953358 3023656
-2.3301311 -3.781729 12.194774 8816285
-1.660414 -2.9982491 9.6683207 15203327
-1.449033 -2.94858 9.508153 2370886
-1.650259 -3.5303459 11.384151 3226461
-1.765458 -3.8159471 12.305114 5665962
-1.84466 -4.0289111 12.991851 9217751
0.021163 -2.8413751 9.1624556 15597311
0.112619 -2.7450211 8.8517485 2963799
0.43964899 -3.5867791 11.566127 10997755
0.900626 -3.1006019 9.998374 15006716
0.912705 -3.091141 9.967864 15138045
0.82931501 -1.772212 5.7147732 10992844
0.84719801 -1.792057 5.7787662 12835046
0.91173202 -1.890204 6.0952582 14808573
1.152855 -2.3434889 7.5569439 14085109
0.95959401 -1.931796 6.2293782 13887984
1.656364 -2.7502041 8.8684597 9545663
2.3397169 -3.7076509 11.955897 4871015
2.3459511 -3.6894839 11.897315 5463921
2.393342 -3.735832 12.046772 5529968
2.3945861 -3.7099941 11.963452 4871268
2.229929 -3.4294 11.058634 3357257
2.247396 -3.4309511 11.063634 2436665
2.277441 -3.4515431 11.130035 2765883
2.261744 -3.403013 10.973546 3686471
2.195859 -3.256871 10.502287 2830135
1.9356281 -2.8306201 9.1277742 2303789
2.0229869 -2.594383 8.3659906 4077885
2.491622 -2.5147021 8.109046 8608593
2.3819959 -1.59384 5.139585 14471901
3.9163949 -2.0640359 6.6558051 6835785
3.93519 -1.714238 5.5278268 10511436
-6.7657871 -2.4099519 7.8087249 12373739
-6.5055628 -2.3212471 7.5213008 13953274
-8.5148249 -3.0751929 9.9642353 13559038
-8.4801579 -3.068013 9.9409714 13822206
-8.9878225 -3.2745211 10.610098 13362169
-9.6524897 -3.5415549 11.475342 15661823
-10.793324 -3.988348 12.923038 5460311
-10.606973 -3.9334991 12.745318 11107449
-10.625613 -3.9474671 12.790579 10452092
-9.2473888 -3.596453 11.653222 10711139
-8.0904694 -3.367451 10.911209 10645345
-8.3225603 -3.485029 11.292184 10710882
-7.723032 -3.273623 10.607188 10842723
-8.7272596 -3.706867 12.010984 10842723
-9.1238832 -3.923527 12.713006 10776673
-7.5074992 -3.7400899 12.118633 10975851
-7.0671172 -3.616219 11.717267 10382953
-6.9480181 -3.5640659 11.548283 10121063
-6.7653632 -3.487618 11.300574 10121063
-6.4269052 -3.338022 10.815853 6377826
-6.9089618 -3.671108 11.895119 10266815
-3.6669199 -1.963521 6.3621988 9937599
-3.382138 -1.8689131 6.0556502 15204351
-4.0596151 -2.841084 9.205677 3947581
-3.6916859 -2.5923369 8.3996878 4079167
-3.7785921 -2.805284 9.0896769 1710363
-2.577899 -1.934641 6.26862 3224371
-2.194392 -1.741313 5.6422 6706771
-2.008213 -2.5806291 8.3617516 3023912
-2.182874 -2.8225579 9.1456499 3156267
-2.334636 -3.770865 12.21835 7233907
-1.638254 -2.9440429 9.5392847 15137535
-1.935874 -3.540215 11.470999 15334911
-1.4301651 -2.896225 9.3843441 2501957
-1.294104 -2.672869 8.6606255 1382962
-1.630365 -3.471056 11.246912 3423584
-1.852065 -3.9839399 12.908756 6323887
-1.875285 -4.0761509 13.20754 9217491
-0.062798999 -2.9295399 9.4922895 15728383
0.113361 -2.7498479 8.9100533 2766675
0.27370399 -3.430517 11.115555 9612244
0.83572102 -1.777334 5.7589169 10926793
0.85431701 -1.7984461 5.8273211 12505823
1.134842 -2.2736349 7.3670292 14018803
1.1668921 -2.2720251 7.3618131 15005695
2.4520371 -3.8670001 12.529849 2632499
2.4708841 -3.8673251 12.530899 3224892
2.4835279 -3.8580101 12.500718 3356731
2.41956 -3.730705 12.088225 3290681
2.2036819 -3.372777 10.928469 3159094
2.2255859 -3.381357 10.956267 3092788
2.225117 -3.3560669 10.874323 3684410
2.2298789 -3.338975 10.818941 4342340
1.951371 -2.707026 8.7713032 2959660
1.9308341 -2.6607449 8.6213436 3025196
1.984201 -2.548111 8.2563868 5524559
2.3381181 -2.7789891 9.0044756 4537150
3.931824 -2.062227 6.6820259 6967628
-5.5184689 -1.942844 6.3256922 1122883
-6.688807 -2.371048 7.7198792 9939919
-6.6990328 -2.3869679 7.7717109 11980017
-7.771492 -2.7835131 9.0628176 12507380
-8.29037 -2.979697 9.7015724 13296895
-8.5417881 -3.0754149 10.013219 13756415
-8.7449102 -3.1651061 10.305243 13492728
-8.3716373 -3.0353251 9.8826923 13295352
-8.7816391 -3.1895821 10.384935 13492726
-9.3511791 -3.414465 11.11713 15596287
-9.8468475 -3.6082139 11.747957 13753827
-10.629128 -3.92974 12.79481 10583418
-8.2073669 -3.372576 10.980743 10711137
-8.1187782 -3.3562119 10.927465 10776672
-7.963459 -3.298609 10.739917 10776929
-8.1592007 -3.386483 11.026024 10776930
-8.2068338 -3.413115 11.112734 10711137
-8.2727604 -3.4544489 11.247314 10711136
-9.2855968 -3.885237 12.649911 10776673
-9.2201214 -3.865674 12.58622 10776930
-9.25109 -3.8865509 12.654191 10776930
-7.7585158 -3.313431 10.788174 10842722
-7.8128161 -3.3435371 10.886196 10645087
-7.50108 -3.216795 10.473539 10710880
-8.6784277 -3.8006361 12.374461 10447965
-8.5104389 -3.9713559 12.930306 10908773
-7.050499 -3.5903261 11.689713 10383206
-6.938417 -3.541986 11.532326 10317930
-6.7960701 -3.4865601 11.351865 10121066
-6.288734 -3.250515 10.583325 6442587
-6.9089618 -3.6534131 11.89512 10070461
-3.6669199 -1.954057 6.3621988 9938107
-2.442168 -1.342996 4.3726521 14545394
-4.0759168 -2.8387439 9.2426434 4145217
-4.1184368 -2.968493 9.6650944 4606298
-4.1414552 -3.0166781 9.8219805 15594487
-3.824688 -2.82582 9.2005653 986380
-2.1255 -2.7351251 8.9052706 3220777
-2.197943 -2.8460841 9.2665424 3220777
-1.64432 -2.940701 9.5746059 15137535
-1.418269 -2.85829 9.3062859 2174277
-1.29527 -2.6623819 8.6684284 859449
-1.6055419 -3.4370029 11.19051 6522033
-1.166092 -2.8509879 9.2825098 10534370
0.113976 -2.7514379 8.9583855 2899299
0.27435899 -3.422148 11.142143 9153502
1.21242 -2.4894769 8.1054678 13492733
1.230939 -2.478209 8.0687809 13099517
1.157047 -2.3069489 7.511179 12968446
1.2721159 -2.488318 8.101696 13625342
1.252299 -2.4265659 7.9006381 13954557
1.356907 -2.6048169 8.4810038 13889021
1.366506 -2.5990789 8.4623203 13757179
1.342211 -2.529567 8.2359991 13033719
1.356299 -2.5329969 8.2471647 12046312
2.167758 -3.3765309 10.993622 1315863
2.195395 -3.393975 11.050416 1578777
2.111799 -3.2404759 10.550639 2236964
2.14627 -3.269073 10.643751 2829357
2.1983881 -3.323936 10.822376 3355445
2.2117159 -3.3197761 10.808833 3947326
2.2275131 -3.319355 10.807462 4736585
2.4364319 -3.0570171 9.9533167 3814965
2.569185 -3.0741291 10.009032 4274235
2.1282761 -1.600482 5.2109952 9134684
3.9337521 -2.0532939 6.6853042 7297362
3.860384 -1.665517 5.4227452 10315083
-5.4027119 -1.8928781 6.1930022 728382
-4.9633389 -1.747882 5.7186141 8229300
-6.7068582 -2.3781819 7.7807889 11453417
-7.8798628 -2.8086579 9.1891947 12572923
-8.2096462 -2.9363921 9.6071081 13099775
-8.3490334 -2.9914551 9.7872591 13559039
-9.1329823 -3.27806 10.724957 13493247
-9.0841951 -3.2662549 10.686333 13361661
-8.6342525 -3.1099191 10.174841 13295866
-8.4579773 -3.0517769 9.9846172 13098488
-9.0154781 -3.2586551 10.661467 13295609
-8.9294233 -3.233238 10.57831 13624315
-10.313405 -3.781003 12.370456 7233117
-10.692258 -3.9269021 12.847796 11238778
-9.4647865 -3.7801571 12.367684 10776419
-8.2748671 -3.3771231 11.049063 10776930
-8.1229916 -3.3217371 10.867857 10710880
-8.1877031 -3.354877 10.976281 10711137
-7.959023 -3.2808051 10.733935 10842466
-8.0010443 -3.3047559 10.812298 10776673
-8.0172596 -3.3181241 10.856034 10776930
-8.137476 -3.374676 11.041057 10776673
-8.1488428 -3.3930869 11.101293 10842466
-8.8519611 -3.693342 12.083651 10776930
-9.1224422 -3.8295259 12.529208 10776929
-8.7698956 -3.814002 12.478416 10578524
-8.8252163 -3.862587 12.637377 10578524
-8.573267 -3.981297 13.025764 10908517
-8.5055122 -3.958781 12.952096 11105895
-8.4712906 -3.9518039 12.929272 11303274
-7.0493822 -3.5723701 11.68786 10449765
-6.8947349 -3.50264 11.459722 10383977
-6.424294 -3.2880371 10.757597 10580337
-6.3670678 -3.275064 10.715154 7033694
-2.955816 -1.962594 6.4210939 2960170
-3.9521761 -2.7392311 8.9620466 4474183
-3.689307 -2.5656919 8.3942747 4408389
-3.8237591 -2.6956921 8.8196001 3947325
-3.921129 -2.773854 9.075325 4210242
-4.1414552 -3.0020671 9.8219805 13819620
-3.8438699 -2.826237 9.2467098 1119256
-2.2136991 -2.246707 7.350637 6912654
-2.1166739 -2.7105739 8.8682909 3155757
-2.200397 -2.8354609 9.276886 3155756
-1.679708 -2.989439 9.7806625 15334399
-1.416739 -2.841378 9.2962465 1978181
-1.287286 -2.6071999 8.5300779 1780546
-1.271224 -2.600301 8.5075064 727862
-1.184944 -2.8830471 9.4325752 10534375
0.056286 -3.2552631 10.650369 10003388
0.071990997 -3.249012 10.629919 4870502
1.343593 -3.189533 10.435317 15071998
0.856888 -1.804781 5.9047709 14874106
0.95621401 -1.993547 6.5223651 12703458
0.99802399 -2.0192471 6.6064472 14874366
1.188012 -2.3572149 7.7121921 14611709
1.174312 -2.3077459 7.5503421 13821944
1.267223 -2.4667411 8.0705318 13492469
1.368046 -2.565768 8.3945236 10137283
1.390488 -2.58427 8.4550552 8295078
1.29293 -2.2220581 7.2699938 2503238
1.309581 -2.2320061 7.3025398 2831946
2.164603 -3.330163 10.895422 1973537
2.083216 -3.181133 10.407836 2302245
2.1136129 -3.2037399 10.481798 2565160
2.1971879 -3.306031 10.816469 2762796
2.205864 -3.294956 10.780234 3091761
2.1929121 -3.251967 10.639587 3815227
1.96549 -2.5632141 8.3861666 4474181
2.601625 -3.308799 10.825525 4802374
2.135623 -1.971658 6.4507508 9002068
1.603691 -1.341887 4.3903041 3349020
-6.5544658 -2.293047 7.5389419 10595791
-6.5616069 -2.29948 7.560091 11385049
-7.6538739 -2.7148299 8.9256554 12440565
-7.5987229 -2.6999519 8.8767405 12703734
-7.9440761 -2.827575 9.2963314 12835577
-7.6302819 -2.7206211 8.9446955 13163770
-8.5242596 -3.044683 10.010126 13229564
-8.283597 -2.963902 9.7445374 13229564
-8.721674 -3.126117 10.277861 13164282
-8.68472 -3.1183391 10.252286 13033212
-8.8357668 -3.1781549 10.448946 13164282
-8.5375147 -3.076288 10.114033 13360889
-8.4724636 -3.0582371 10.054688 13032701
-8.7968674 -3.1809499 10.458138 15134974
-10.090396 -3.674686 12.08141 5854291
-10.285865 -3.7525539 12.337422 6445144
-10.739308 -3.9249859 12.904333 11435131
-10.103426 -3.705833 12.183814 10450804
-8.9697199 -3.510406 11.541302 10448224
-8.7736626 -3.4803081 11.442347 10579041
-8.8467855 -3.516135 11.56014 10579041
-9.1903934 -3.855026 12.674325 10645087
-7.5604959 -3.190985 10.491128 10711136
-8.9152994 -3.8340211 12.605264 10448221
-7.0922542 -3.559047 11.701222 10318181
-7.0493822 -3.5549829 11.68786 10383716
-6.8866882 -3.481524 11.446347 10318438
-6.4335408 -3.2767439 10.773082 10515565
-6.454885 -3.304076 10.862943 7362400
-7.5126081 -3.874594 12.738659 16055803
-7.2706642 -3.768826 12.39092 14217213
-2.1032801 -1.3852561 4.5543618 2696998
-2.5421879 -1.67974 5.5225468 3354928
-4.0144758 -2.768868 9.1033192 4934480
-3.8324831 -2.670367 8.7794733 4408648
-3.9593301 -2.787246 9.1637402 3224125
-3.8140571 -2.6942539 8.8580084 4802900
-3.8915291 -2.7585111 9.0692663 7698818
-2.44765 -1.747131 5.7441139 12568275
-2.088865 -1.496254 4.9192939 9937073
-2.4222779 -2.112514 6.9453979 2893353
-2.2136991 -2.2357719 7.350637 8159125
-2.109004 -2.687608 8.8361578 3156268
-2.2022491 -2.8240349 9.2846947 3024681
-1.253245 -2.525902 8.3045073 1846593
-1.342362 -2.73245 8.9835863 859699
-1.1847171 -2.8684671 9.4307737 10533863
0.057656001 -3.318244 10.909524 10202834
0.073730998 -3.311327 10.886782 5729423
0.114433 -2.7357099 8.9943047 1513284
1.121228 -3.296104 10.836732 14875133
1.137812 -3.2974491 10.841156 14875133
1.228012 -2.5738561 8.4621696 13229297
1.497734 -2.847307 9.361207 8946817
1.5065399 -2.8376651 9.329505 7829112
1.395252 -2.5573709 8.4079704 6974065
1.346768 -2.1759181 7.1538529 4803147
1.97427 -3.0225599 9.9373913 2565413
2.0549331 -3.1226709 10.266531 2368034
1.987446 -2.531038 8.3213949 4472896
-5.4409199 -1.890933 6.2474518 5398658
-8.012125 -2.8378479 9.3759642 12637683
-7.9252782 -2.8119831 9.2905064 12834291
-8.3930254 -2.9831469 9.8560171 12900085
-8.115695 -2.8896229 9.5470228 12900342
-8.703413 -3.104315 10.256342 12769781
-8.7865515 -3.139472 10.372497 12638454
-8.8363638 -3.1628239 10.449651 12638452
-8.4425611 -3.027195 10.001545 12835313
-8.1826715 -2.939188 9.7107773 12638712
-8.682106 -3.1240981 10.321703 14478074
-9.989152 -3.620023 11.960189 5459016
-10.233903 -3.715337 12.275097 5788240
-10.683079 -3.885339 12.836767 11303798
-10.044204 -3.659528 12.090709 11041656
-10.61661 -4.134614 13.660348 10579040
-10.488048 -4.09238 13.520808 10513504
-8.7734241 -3.463192 11.442036 10579553
-8.4457798 -3.3864181 11.18838 10579551
-8.431613 -3.387413 11.191668 10842723
-9.3092413 -3.885781 12.838227 10711137
-6.9978161 -3.4859259 11.517146 10252387
-6.9550161 -3.473109 11.474798 10318436
-6.9506831 -3.479485 11.495865 10383973
-6.7224789 -3.398695 11.228942 10055785
-6.446074 -3.2999511 10.902702 15851239
-7.5078182 -3.8531859 12.730536 16514300
-7.3455911 -3.789042 12.518611 14151678
-2.3827479 -1.561643 5.159512 2696999
-2.4304111 -1.598029 5.279727 3354929
-3.8647239 -2.652544 8.7637377 4606031
-3.942863 -2.724556 9.0016565 4737363
-3.963583 -2.7765939 9.173584 3223613
-2.102006 -1.493073 4.932961 14934506
-2.084929 -1.486131 4.9100261 12960460
-2.2610481 -1.773178 5.8583989 6575186
-2.8640659 -2.5508721 8.427824 6445657
-2.1073461 -2.6723609 8.8292093 3090218
-2.2022491 -2.8102241 9.2846947 3024424
-2.197629 -2.822027 9.3236923 3023912
-2.304302 -3.6501119 12.059599 7958403
-1.2433389 -2.49368 8.2388649 1912134
-1.375939 -2.7871001 9.2082968 1122364
0.058651999 -3.3590641 11.098005 10202311
0.074097 -3.311501 10.940862 6187395
0.090148002 -2.799165 9.2481565 9473710
0.116645 -2.7749569 9.1681776 8883371
1.6389281 -3.2202561 10.639399 859185
1.646017 -3.2032509 10.583217 15
1.455676 -2.7035439 8.9322348 2041919
1.475973 -2.716444 8.9748573 3095120
1.4185081 -2.519522 8.3242464 4344414
1.583932 -2.526613 8.3476734 5066058
2.140682 -3.237067 10.694941 2302237
2.1586699 -3.240186 10.705245 2170651
2.137305 -1.911069 6.3139782 8739406
2.1796391 -1.597831 5.2790718 12823983
3.4869211 -2.165971 7.1561489 14411247
3.7781711 -2.3397441 7.7302761 15070205
2.7988651 -1.400738 4.6278958 10776148
4.1539912 -1.981457 6.5465331 15661045
4.036767 -1.702083 5.623508 6892314
-5.581202 -1.930154 6.4085288 9078963
-7.597939 -2.6779201 8.8912754 12112109
-7.6889071 -2.7147081 9.0134182 12374250
-7.9858031 -2.8244569 9.3778114 12505321
-7.8668599 -2.7872579 9.254302 12505322
-8.2259903 -2.9196091 9.6937342 13162996
-8.2635021 -2.9380729 9.7550392 13426425
-8.4039173 -2.9932539 9.9382505 13162740
-8.2204437 -2.9330649 9.7384119 12503525
-8.1321726 -2.906692 9.6508484 11846371
-9.4661732 -3.407568 11.313866 9011319
-10.184732 -3.6793129 12.216119 6445393
-10.494873 -3.798131 12.61062 10910321
-10.062702 -3.648248 12.112976 11172980
-9.99508 -3.6302321 12.053159 10647663
-9.61936 -3.7278261 12.377192 10447967
-10.829132 -4.2047019 13.960522 10447454
-8.7134275 -3.4292569 11.385879 10776929
-8.6976824 -3.6126659 11.994836 10776673
-7.6783609 -3.29054 10.925305 10447965
-6.769803 -3.4228079 11.364467 10053472
-7.3643222 -3.7800341 12.550533 13821692
-2.1866579 -1.426083 4.7349062 3618097
-2.1222939 -1.38858 4.6103859 3289132
-4.106719 -2.8238361 9.3757467 5066583
-4.0413132 -2.788331 9.257864 5000533
-3.616066 -2.5470071 8.4566135 13950180
-2.083945 -1.478129 4.9077091 15133685
-3.7628081 -2.678318 8.8925972 13488604
-3.924865 -2.833514 9.4078808 4738132
-2.136693 -1.66742 5.5361948 5851725
-2.2416029 -1.756057 5.8304911 7693411
-2.365417 -1.86025 6.176435 8482157
-2.2904501 -2.003644 6.6525331 7235172
-2.782007 -2.5784781 8.5611057 5196363
-1.916652 -1.826602 6.0647149 10791354
-1.9793 -2.482177 8.2413664 2892843
-2.1073461 -2.6592269 8.8292093 3090475
-2.1707699 -2.7564399 9.1519804 3156267
-2.350059 -3.7042949 12.299065 9866667
-2.3006101 -3.6548049 12.134745 11183557
-1.401944 -2.770653 9.1991692 2241355
-1.240921 -2.476598 8.2228441 2109511
-1.375798 -2.773118 9.2073545 794678
-0.101665 -3.192595 10.600107 15990783
0.184221 -2.9713581 9.8655529 15727615
0.200115 -2.9895489 9.925952 15727615
1.257387 -2.609647 8.6645927 8555417
1.5013781 -2.5215361 8.3720465 3619641
2.12514 -3.1741791 10.538963 2235932
2.168498 -3.1688089 10.521134 3485746
3.0906839 -3.3543251 11.137087 8349546
3.1818621 -3.4348691 11.404509 7624797
3.196002 -3.4318349 11.394436 7098710
3.203398 -3.421629 11.360551 6243144
3.180692 -3.3795481 11.220832 6308937
2.4851091 -2.4718411 8.2070494 7686979
2.137305 -1.9016761 6.3139782 9329489
2.1962061 -1.945534 6.4595928 8870480
2.104435 -1.840084 6.109479 9397339
2.5847621 -1.5976861 5.3046641 16186110
2.60501 -1.605301 5.329946 15464187
2.7893479 -1.389114 4.6121588 10776406
-6.2037501 -2.1312129 7.1112142 3751269
-5.9746799 -2.056026 6.8603339 8093866
-7.6781611 -2.7022359 9.0165443 11124181
-7.8451591 -2.765841 9.2287731 11650783
-7.8872962 -2.790462 9.3109283 11979232
-8.4152002 -2.9824691 9.9515953 10992337
-8.1495705 -2.893415 9.6544514 9083823
-8.1337175 -2.892885 9.6526823 10268615
-8.3389349 -2.9711189 9.9137249 13095909
-10.274818 -3.6935251 12.324173 7497817
-10.172453 -3.6632631 12.223201 10385518
-10.067538 -3.631974 12.118797 10976372
-9.9497814 -3.5959311 11.998532 10713970
-8.7202168 -3.2387049 10.806578 10514790
-8.7194681 -3.2444079 10.825606 10317668
-9.0439177 -3.3838811 11.290985 10448996
-10.844687 -4.1899438 13.980576 10513248
-8.1244154 -3.464498 11.559982 10447708
-6.8033772 -3.414268 11.392379 10055535
-6.7294722 -3.385612 11.296763 9922662
-7.442759 -3.782248 12.620218 16514044
-7.3805861 -3.7792521 12.610221 12175576
-2.9508791 -1.908836 6.369206 4341055
-2.8884311 -1.874458 6.254499 4209468
-2.90974 -1.894389 6.3210011 3618357
-4.0808902 -2.7922151 9.3167772 5460573
-4.2479901 -2.9670069 9.9000053 7829898
-3.7628081 -2.6650901 8.8925972 14476010
-2.201915 -1.716446 5.7272592 5655112
-2.377171 -1.889619 6.305088 7828848
-2.292634 -2.1047771 7.023005 4933190
-2.782007 -2.565742 8.5611057 4999498
-1.916652 -1.81758 6.0647149 11250354
-2.1247251 -2.6846459 8.9578514 3089963
-2.158119 -2.74405 9.156065 3155498
-2.3522201 -3.6893899 12.310376 11180972
-2.3215511 -3.669857 12.245202 11509940
-1.238705 -2.459965 8.2081594 2043717
-1.378617 -2.765074 9.2262144 729399
-1.3208669 -2.7308061 9.1118727 3161961
-0.55195898 -3.051007 10.180285 4206902
-0.1338 -3.1910951 10.647718 12897217
1.487699 -2.7358589 9.1287317 3948098
1.506874 -2.746057 9.1627588 3487290
1.584132 -2.5020931 8.3487272 3288878
2.382431 -3.0272501 10.101018 4932164
3.1252961 -3.357141 11.201762 5784645
3.1626151 -3.37921 11.275401 5455425
3.144614 -3.3422511 11.152078 4271410
3.190434 -3.3731561 11.2552 3087136
2.1622641 -1.8813111 6.2773652 9593173
2.1291871 -1.844566 6.154758 9198422
1.570789 -1.33217 4.4450469 9394775
2.613503 -1.398295 4.6656871 12042703
-6.2037501 -2.120635 7.1112142 5658993
-6.5012188 -2.226115 7.4649239 8619167
-7.7167492 -2.7213521 9.1256237 9084593
-9.5841885 -3.4220541 11.475318 6443066
-9.9986448 -3.5827999 12.014353 10387059
-9.8689508 -3.542659 11.879747 10977143
-8.7822609 -3.2395861 10.86344 10186336
-8.5527029 -3.160723 10.598984 10185820
-8.5897856 -3.18029 10.664599 10186077
-8.6289167 -3.2006891 10.733006 9988955
-8.6885748 -3.228792 10.827245 10054749
-8.7585468 -3.260839 10.93471 10251871
-8.9298735 -3.330811 11.169349 10513760
-9.5798407 -3.682888 12.349981 10447709
-8.7305651 -3.402061 11.408272 10645087
-6.9823751 -3.4780409 11.663061 10186343
-6.9601231 -3.4755931 11.654852 9662320
-6.4721131 -3.2480831 10.891933 8152168
-7.369257 -3.7263081 12.495586 16711165
-7.1962051 -3.666549 12.295194 11912666
-2.5009 -1.387049 4.6512499 9345963
-2.382 -1.332162 4.4671941 8819606
-4.3892498 -2.968133 9.9531651 6250345
-4.3057728 -2.951509 9.897418 5460831
-4.312922 -2.9767661 9.9821157 4342353
-4.3331118 -3.0114379 10.098382 6909052
-2.9548471 -2.1197059 7.108099 657931
-1.99 -1.543553 5.1760621 4668473
-2.1286919 -1.657544 5.558311 6576470
-2.2449839 -2.050801 6.8770361 4999241
-1.941754 -1.78192 5.9753861 4999757
-2.115654 -2.6767039 8.9759026 3287084
-2.2936909 -3.579731 12.004065 7890544
-1.373244 -2.7406261 9.1902571 860216
-0.89508599 -2.8733709 9.6353941 9791324
-0.132761 -3.1505859 10.564991 11058388
0.84978497 -2.860543 9.5923796 14743802
1.118028 -2.5599051 8.5842361 7238783
1.524796 -2.7401381 9.1886187 3684153
1.5455821 -2.7285709 9.1498327 3419954
1.524559 -2.4938021 8.3625708 3090475
1.627001 -2.4982879 8.377615 4143674
2.1301451 -1.852164 6.2109399 9460564
2.2229719 -1.924531 6.4536099 9460564
2.3446541 -2.021148 6.7775998 9395030
2.136632 -1.81837 6.0976162 9461590
-6.359055 -2.159198 7.2768269 2965080
-6.6933999 -2.280488 7.6855941 8554917
-9.3495274 -3.3216159 11.194355 8019787
-9.5814686 -3.4100909 11.492532 8417632
-9.4337006 -3.381635 11.39663 10516841
-8.9012671 -3.255126 10.970273 10319204
-8.8587341 -3.245522 10.937907 10581862
-8.8529615 -3.2493761 10.950894 10187361
-8.5121174 -3.1300321 10.548689 9529431
-8.4933205 -3.1288879 10.544834 8871758
-8.2686043 -3.0517399 10.284834 9659734
-8.6666641 -3.2045839 10.79994 9791320
-8.6901712 -3.219244 10.849346 9857113
-8.7511654 -3.2478709 10.945823 10317407
-8.4012699 -3.3823321 11.398977 10776930
-6.8769269 -3.3999801 11.458454 10121579
-6.754334 -3.347667 11.282151 10186598
-6.7958608 -3.4020629 11.465473 11181988
-7.338541 -3.692266 12.443502 16711422
-7.1962051 -3.6482589 12.295194 11912921
-2.3903511 -1.319124 4.4456491 6385784
-2.6214449 -1.6952291 5.7131829 4276027
-4.2945862 -2.9291551 9.8717031 5395039
-4.3457012 -2.974189 10.023472 5460830
-4.4043131 -3.0246811 10.193639 4671058
-4.379065 -3.028194 10.205478 8026504
-3.1651461 -2.2592411 7.6139898 1841953
-1.957263 -1.510587 5.0909109 4011570
-1.941754 -1.773031 5.9753861 5130828
-2.7072611 -2.4833889 8.3694029 5327437
-1.89521 -1.804893 6.0827651 10791869
-1.606071 -3.287483 11.079323 3293289
1.0819629 -3.4501281 11.627461 14743805
1.069358 -3.3562801 11.311179 14941437
1.161882 -2.841794 9.5772839 3754852
2.2589049 -3.138741 10.57804 6775907
2.256561 -1.978035 6.6662822 9461075
2.1815979 -1.895663 6.3886752 9395026
2.20858 -1.9025331 6.411828 9526613
2.0762529 -1.583398 5.3362932 15726072
-6.359055 -2.1483729 7.2768269 6911375
-8.9638748 -3.151798 10.675563 10527638
-9.4431286 -3.3499839 11.346846 9796461
-8.9026518 -3.1982651 10.832955 10188135
-9.7801466 -3.519876 11.922293 10122340
-8.3405647 -3.012696 10.204408 10188388
-8.2664223 -2.991359 10.132137 10056545
-7.7487268 -2.8194449 9.5498381 10188132
-7.6068311 -2.772898 9.3921785 9990753
-7.6333418 -2.7876821 9.442255 9595994
-7.3873901 -2.7028351 9.1548643 9069394
-7.1370158 -2.6160519 8.8609219 8872015
-7.9720602 -2.927542 9.9159803 8871502
-8.4691839 -3.115864 10.553851 9265747
-7.9765959 -2.940088 9.9584751 9660504
-7.744298 -2.859777 9.6864491 10054492
-7.9362459 -2.936121 9.9450388 9989213
-8.8009577 -3.262114 11.04922 10120285
-8.7876587 -3.263279 11.053166 10382685
-8.6383648 -3.238133 10.967994 10514015
-8.6653376 -3.254391 11.023062 10382429
-8.6457729 -3.2532001 11.019025 10382429
-8.0088043 -3.2946081 11.159281 10645344
-7.9702101 -3.299247 11.174994 10579294
-6.765388 -3.3280649 11.272606 9991016
-6.7486191 -3.3280649 11.272606 10056291
-7.0217199 -3.47137 11.757998 9529964
-6.7958608 -3.3850069 11.465473 10853533
-7.1805701 -3.5946729 12.175641 16711422
-2.8314581 -1.804311 6.1114459 4078908
-2.8839769 -1.855653 6.285347 3486516
-3.7105751 -2.4592731 8.3298893 5263954
-4.5406651 -3.0398901 10.296517 5526623
-4.4952421 -3.019666 10.228017 5526878
-4.4392939 -2.9922121 10.135024 5592420
-4.411252 -2.983443 10.105322 5460834
-4.4202762 -2.999768 10.16062 5395041
-4.4574852 -3.035399 10.281305 5197660
-4.497601 -3.073261 10.40955 4473941
-4.3061571 -2.952611 10.000892 4671578
-4.423245 -3.0434101 10.30844 7303299
-3.5971889 -2.545646 8.6224451 3095625
-3.250582 -2.3085921 7.8195128 4408142
-2.133606 -1.651209 5.5928679 4866109
-1.988376 -1.544839 5.2325778 6510420
-2.817174 -2.5022149 8.475338 5984850
-1.89521 -1.795844 6.0827651 11974081
-1.9536591 -2.4016171 8.1346006 3024685
-2.1553559 -2.716876 9.202424 3615022
-2.3765349 -3.03422 10.277309 3286313
-2.303942 -3.5598569 12.057714 5983835
-2.3166599 -3.6075931 12.219404 7891577
-1.382383 -2.7313421 9.2514229 926010
-1.596348 -3.251199 11.012249 3161189
-1.193923 -2.805927 9.5040512 11980785
-0.161485 -2.7997079 9.4829893 15397375
1.060021 -3.363214 11.391658 14348795
1.076152 -3.3606701 11.383041 14085365
1.098739 -3.32652 11.26737 14084852
1.1172 -3.331588 11.284537 13953266
1.153358 -3.3885009 11.477308 13820395
1.170506 -3.388716 11.478037 13228772
1.19313 -3.404552 11.531675 12307927
1.2101949 -3.4043 11.530822 11453139
1.205305 -3.343158 11.323727 11385289
1.215064 -3.323776 11.258078 9148327
1.435343 -2.233326 7.5645761 4801347
2.1965289 -1.882665 6.3768411 9067099
-8.7952509 -3.076926 10.47474 10001045
-8.7479239 -3.109957 10.587187 9991269
-8.7168446 -3.104497 10.5686 9925990
-8.5983753 -3.067837 10.4438 9860452
-8.8288412 -3.1557679 10.743141 9794659
-8.9507952 -3.2051611 10.911288 9860196
-8.2427588 -2.956984 10.066424 9925733
-7.730885 -2.778404 9.4584856 9794403
-7.5808988 -2.7294681 9.291894 9794400
-7.8554082 -2.8334701 9.6459475 9663070
-7.3593011 -2.65938 9.0532961 9597021
-7.410861 -2.6829219 9.1334372 9727323
-7.92275 -2.8947749 9.8546467 8411207
-8.0751305 -2.95592 10.062801 8476744
-7.4548998 -2.733952 9.3071585 8806221
-7.0564442 -2.5926399 8.8260918 9659734
-7.15908 -2.635253 8.971159 9988956
-7.7743349 -2.8670731 9.7603397 10186077
-8.0145779 -2.961201 10.080781 10185309
-8.888216 -3.2901471 11.200605 10251103
-8.8202009 -3.2896371 11.198869 10645344
-8.3709469 -3.1279881 10.648571 10711137
-8.4138288 -3.2870779 11.190158 10776673
-9.4373388 -3.708952 12.626339 10645344
-8.228425 -3.3678989 11.465295 10514015
-8.1969147 -3.3759949 11.492856 10514015
-6.747149 -3.310575 11.270149 10121572
-6.9985328 -3.4424739 11.719172 9399663
-6.7126322 -3.3100891 11.268494 8873328
-7.110352 -3.5415859 12.056577 16711165
-2.724988 -1.727715 5.881639 4078135
-4.037077 -2.662189 9.0628557 5394767
-4.0983729 -2.720782 9.2623234 5262422
-4.622056 -3.0892091 10.516556 5855587
-4.5613222 -3.05897 10.413615 5658209
-4.531662 -3.049437 10.381159 5592415
-4.4207182 -2.984952 10.161634 5592676
-4.4135909 -2.990366 10.180064 5329764
-4.2752762 -2.916667 9.9291735 4408149
-4.4489489 -3.0456719 10.368343 8355730
-4.2161741 -2.896359 9.8600397 12763607
-4.3151398 -2.974694 10.126716 14277102
-4.4071698 -3.048779 10.378922 14607092
-3.60764 -2.5401781 8.6474953 3358288
-2.886246 -2.494822 8.4930897 5327948
-1.920496 -2.3489549 7.9965172 2959406
-2.1688571 -2.737505 9.3192558 3352621
-2.1006589 -3.179894 10.825274 1313306
-2.0897629 -3.1878369 10.852314 2892086
-2.330317 -3.5824659 12.195745 7105410
-2.3495791 -3.64042 12.393036 10066867
-1.1880831 -2.7781341 9.4575672 11981555
-0.70176101 -2.8602991 9.7372789 5128771
-0.174567 -2.7693501 9.4276648 14082294
-0.15552799 -2.6828511 9.1331949 14608382
0.72267002 -3.065403 10.435513 14678778
0.87869 -3.3016651 11.239817 14810107
1.111864 -3.3492939 11.401961 8821686
1.128951 -3.349668 11.403232 7637669
1.182689 -3.4571669 11.769191 6386060
1.200197 -3.4571669 11.769191 5661309
1.222802 -3.4716389 11.81846 4674669
1.238718 -3.4669781 11.802591 4939129
1.227428 -3.3873689 11.531577 5528686
1.243619 -3.384747 11.522654 4542306
1.2339669 -3.312814 11.277773 5067881
1.671195 -2.4166801 8.2270737 3616560
2.480715 -3.211066 10.931394 6182744
2.476985 -2.368017 8.06141 9395796
2.538825 -2.1839499 7.434793 7884099
2.245908 -1.8827651 6.4094729 8479328
2.774076 -1.3540519 4.6095829 10514012
4.6707678 -1.923287 6.5474229 10116417
-7.701642 -2.6759529 9.1560802 11517611
-8.8021288 -3.0637381 10.482931 11909025
-8.6133289 -3.0033431 10.276285 9014134
-8.7917175 -3.081954 10.545262 6510145
-8.7758064 -3.081876 10.544992 7363913
-8.5314426 -3.006809 10.288145 8415061
-8.2987051 -2.9300399 10.025469 9334110
-8.3868303 -2.966486 10.150172 9925476
-9.5855885 -3.396611 11.621895 9991783
-8.1394186 -2.8893781 9.8863401 9991268
-8.4312544 -2.9983931 10.259348 9991524
-8.2470322 -2.9381969 10.05338 9991524
-7.5172982 -2.6879611 9.1971693 9531489
-7.3652229 -2.638386 9.0275402 9596769
-7.234621 -2.5963349 8.8836594 9596769
-8.2482729 -2.9709649 10.165498 9201239
-7.1778712 -2.6336989 9.0115051 10054491
-7.742321 -2.846122 9.7383347 10185047
-8.0910292 -2.9798851 10.19602 10185048
-8.8436785 -3.287899 11.249925 10710881
-8.6314049 -3.3027279 11.300665 10513501
-8.0835266 -3.1420441 10.750865 10710880
-8.5917883 -3.3528709 11.472233 10842722
-9.7564259 -3.8149381 13.053249 10776929
-8.8483324 -3.515837 12.02984 10776930
-7.9746919 -3.207624 10.975255 10645344
-8.5729771 -3.6819501 12.598216 10579550
-8.5825672 -3.694144 12.639938 10645344
-6.6584411 -3.250504 11.121976 10187625
-6.9904971 -3.4211071 11.705713 9399404
-6.7424598 -3.30796 11.318566 9004910
-6.5910139 -3.2417541 11.092033 9334899
-2.724988 -1.718966 5.881639 4209721
-2.8426399 -1.82244 6.2356901 3683120
-4.575006 -3.0016389 10.270454 5788758
-4.3306189 -2.8508191 9.754405 4276042
-4.6639118 -3.0805449 10.540439 5328471
-4.5171652 -3.0346291 10.383332 5657957
-4.4733968 -3.015537 10.318007 5460835
-4.3250608 -2.935688 10.044797 3948623
-4.4398909 -3.0345991 10.383229 13948132
-3.7434461 -2.6131339 8.9411402 10134962
-3.7558861 -2.631166 9.0028391 3555920
-3.628639 -2.551121 8.7289543 3685708
-2.850101 -2.451102 8.3867283 6379864
-1.949313 -1.802675 6.1680622 10725830
-1.870424 -1.754496 6.003211 11581656
-1.914717 -2.3300271 7.972456 2828080
-2.098156 -2.634856 9.0154629 3484205
-2.1018469 -2.6910961 9.2078943 3615276
-2.095727 -3.1563621 10.799857 2166563
-2.0827341 -3.161025 10.815811 3546685
-2.3462911 -3.588757 12.279344 8880294
-2.353761 -3.6284311 12.415096 10987732
-1.197593 -2.78619 9.5332699 12112372
-0.44460201 -3.302763 11.300784 10327473
-0.423996 -3.273458 11.200515 12170447
-0.162136 -2.782681 9.5212631 15267327
0.66326302 -3.0622871 10.477968 14612986
0.81304002 -3.3591111 11.493586 14940669
0.83027297 -3.3596561 11.49545 14874876
0.85182899 -3.3773229 11.555901 14546170
0.88463598 -3.4380169 11.763571 14677499
0.90289599 -3.440912 11.773478 14611449
0.93792498 -3.5063939 11.997532 14545656
0.94873601 -3.4805789 11.909203 14545399
0.96912199 -3.4901929 11.942099 14545142
1.0032181 -3.5479529 12.139729 14610421
1.021533 -3.548842 12.142774 14478321
1.055405 -3.6028049 12.327415 13755111
1.074062 -3.603878 12.331082 12703457
1.1004601 -3.6304481 12.421995 12308190
1.118898 -3.630316 12.421543 10005178
1.135137 -3.6231699 12.397093 9280687
1.153031 -3.6214499 12.391207 7898779
1.295853 -3.011034 10.302598 3684925
1.336278 -2.998574 10.259965 3618617
2.241992 -1.935706 6.62324 5384767
2.2605309 -1.9431731 6.6487908 4859964
2.774076 -1.347195 4.6095829 10250840
3.9691219 -1.622709 5.5522871 10445651
-7.6568909 -2.5520821 8.7769156 8886953
-7.905478 -2.6394379 9.0773439 8821417
-8.2961016 -2.8627651 9.8453913 10131089
-8.7354803 -3.025063 10.403556 10921370
-8.4826498 -2.9427221 10.120376 9342592
-8.5121021 -2.95819 10.173571 6579287
-8.8029213 -3.064707 10.539894 5130297
-8.4692173 -2.9537899 10.158438 5525825
-8.3405828 -2.914125 10.022028 6247750
-8.5345173 -2.9872251 10.273424 7296586
-8.447423 -2.962044 10.186825 7298127
-8.016572 -2.82109 9.7020674 9662051
-8.893631 -3.1353779 10.782942 9991787
-7.5109911 -2.667181 9.1727571 9399901
-7.3598781 -2.6182771 9.00457 9399901
-7.234889 -2.578506 8.8677902 9661792
-7.4557948 -2.6718509 9.188817 9463644
-7.5735998 -2.769928 9.5261164 10382430
-7.7278342 -2.831636 9.7383347 10316895
-8.163415 -2.9968591 10.306558 10251358
-8.3568773 -3.073653 10.570663 10251358
-8.2508211 -3.1781709 10.930113 10645087
-7.994936 -3.0917921 10.633042 10776673
-8.4824038 -3.2868071 11.303724 10711137
-8.4658623 -3.2869129 11.30409 10776930
-9.0736895 -3.529917 12.139809 10776930
-7.2860031 -2.915699 10.027439 10645087
-8.5402002 -3.5110481 12.074916 10710111
-6.581285 -3.196486 10.993097 10450027
-6.742609 -3.2911949 11.318816 9069937
-6.5588388 -3.2095089 11.037886 10057342
-6.9408131 -3.4482191 11.858839 10597571
-2.9864581 -1.880354 6.466763 3683634
-2.974005 -1.8969541 6.5238538 3813937
-3.475239 -2.231226 7.6734552 3091244
-3.5562201 -2.313616 7.9568038 6447718
-3.788506 -2.4729691 8.504837 6250080
-4.9871249 -3.2662821 11.233136 5855846
-4.559031 -3.057621 10.515525 5199206
-4.4443121 -3.001277 10.321752 4213087
-3.7434461 -2.599833 8.9411402 9477029
-3.691416 -2.582047 8.8799686 4081229
-3.6331429 -2.5504141 8.7711782 4409937
-3.7270501 -2.6257639 9.0303192 4474704
-2.35251 -1.821511 6.2643962 5458762
-2.326139 -1.808255 6.2188082 5656141
-2.720299 -2.423023 8.333065 4274747
-1.950393 -1.794494 6.1714802 11910086
-1.886071 -1.760169 6.053432 11843530
-2.0854831 -2.6223741 9.0186577 3812912
-2.1053259 -2.664465 9.163415 3747120
-2.0706201 -2.637619 9.0710888 3878194
-2.1006041 -3.147604 10.824987 1775388
-2.0865619 -3.1507161 10.835691 4010816
-2.355273 -3.5841589 12.326354 11511478
-2.3476889 -3.6006501 12.383067 13025229
-2.265254 -3.529609 12.138748 11116721
-0.462753 -3.420099 11.762134 15067903
-0.44296199 -3.402477 11.701529 14542846
-0.31299299 -2.7254641 9.3731976 13820659
-0.235055 -2.793479 9.6071091 14546175
0.82027602 -3.3717549 11.595871 13888761
0.84184998 -3.3891649 11.655746 13362165
0.89203203 -3.5187171 12.101291 12178153
0.90880001 -3.513947 12.084885 11651554
0.93527502 -3.5461669 12.195695 11059673
0.95135897 -3.5385129 12.169371 10862294
0.97587198 -3.561908 12.249831 10269387
0.99601603 -3.568794 12.273512 9281979
1.043281 -3.6708579 12.62452 8558253
1.061818 -3.670017 12.621628 7702426
1.112361 -3.7779081 12.992681 6320255
1.132514 -3.780664 13.002159 5530738
1.164495 -3.8221459 13.144819 6383215
1.182664 -3.8176761 13.129447 5263960
1.196485 -3.799542 13.067083 4934483
1.222042 -3.8186641 13.132845 3618367
1.71077 -3.0805061 10.594231 4867913
2.5511651 -3.2057691 11.025024 4734271
2.618784 -2.4196489 8.3214626 9790295
2.2605309 -1.933282 6.6487908 13087158
2.6471729 -1.3282731 4.568089 14999016
3.8965361 -1.5849251 5.450748 10445652
-7.6997442 -2.5532351 8.8260365 8820125
-7.905478 -2.6259351 9.0773439 9412264
-8.2098732 -2.8285029 9.7775822 7829092
-8.1093874 -2.798841 9.6750488 7895142
-8.3373489 -2.8826351 9.9647074 6711125
-8.6463575 -2.9948001 10.352438 5721919
-8.3944225 -2.9127259 10.068727 5722689
-8.1716738 -2.8405039 9.819068 6248264
-8.1384916 -2.8340349 9.7967081 6705478
-8.1930542 -2.8581531 9.8800793 6707020
-6.9663262 -2.5347919 8.7622833 10185564
-7.0615492 -2.5742581 8.8987064 10251358
-7.03862 -2.5707181 8.8864698 10251101
-7.1369581 -2.6115379 9.0275793 10185306
-8.3822422 -3.090471 10.683155 10776932
-8.4923325 -3.137008 10.844025 10777186
-8.0921679 -3.088937 10.677855 10316379
-8.0214338 -3.0679591 10.605337 10447708
-7.6143842 -2.918014 10.087005 10579294
-8.2643652 -3.1733561 10.969672 10645344
-8.0548325 -3.0990181 10.712702 10645344
-8.4138527 -3.2564759 11.257004 10842466
-7.989399 -3.1808259 10.995496 10579551
-6.5641561 -3.1718559 10.964486 10187112
-6.5203028 -3.1743281 10.973034 10451329
-6.940814 -3.430578 11.85884 10924484
-5.0898972 -3.3165369 11.464621 6645873
-4.5145559 -3.0331171 10.484893 4738401
-3.785351 -2.6154871 9.0412292 7568520
-3.6597919 -2.5559771 8.8355131 4476501
-3.79111 -2.6572311 9.1855307 4213070
-2.046495 -1.56407 5.4066858 4012087
-2.249747 -1.739924 6.0145779 5393739
-2.7163939 -2.407166 8.321104 3550770
-1.951049 -1.7859139 6.1735559 8356493
-1.896435 -1.7607861 6.0866952 11909061
-2.0936761 -2.6361649 9.112709 4142135
-2.350673 -2.9985819 10.365515 4471101
-2.4297991 -3.412946 11.797889 2494996
-2.411644 -3.412091 11.794932 2166545
-2.3296199 -3.5269849 12.192101 9207438
-2.306757 -3.519773 12.16717 10654881
-1.948249 -3.1718421 10.96444 6511206
-0.47850099 -2.7012861 9.3378181 10722740
-0.55672503 -3.4427121 11.900785 15856126
-0.37154999 -2.8393469 9.8150692 15529981
-0.31957901 -2.7685821 9.5704479 14939902
0.69141698 -3.3994451 11.751219 14480891
0.55963898 -2.6836879 9.2769852 14612218
0.74164802 -3.4709029 11.998235 14743547
0.754884 -3.4498219 11.925364 14874361
0.77933502 -3.4797871 12.028946 14808312
0.79742301 -3.480638 12.031886 14807542
0.81706899 -3.488096 12.057667 14150897
0.83681798 -3.495666 12.083835 13032420
0.853894 -3.491987 12.071116 11913946
0.87502003 -3.504678 12.11499 10662852
0.92101502 -3.4742341 12.009751 7373206
0.93076098 -3.44419 11.905892 6781325
0.93571699 -3.3978701 11.745775 5135475
0.957982 -3.4149539 11.804832 2832208
0.96468598 -3.37695 11.673457 1186098
0.98803103 -3.397512 11.744538 723997
0.99034101 -3.3462839 11.567451 526610
1.000306 -3.3222289 11.4843 460561
1.0233001 -3.341531 11.55102 395276
1.045013 -3.356076 11.6013 724497
1.043583 -3.2970369 11.397214 855569
1.7453949 -3.126775 10.808653 4472384
2.5300281 -3.1629429 10.933678 3090474
2.5659361 -2.35869 8.1535301 7160130
3.8099201 -1.541766 5.3295841 10511441
-8.3262453 -2.863992 9.951437 6316370
-8.2869129 -2.855541 9.9220686 6575688
-8.201417 -2.8311219 9.8372231 6575429
-7.996594 -2.8208151 9.8014097 9071197
-7.5751371 -2.762821 9.5998993 10185564
-7.6157212 -2.7828691 9.6695585 10447965
-7.6697679 -2.8079219 9.7566099 10579551
-7.295764 -2.6760621 9.29844 10710880
-7.9208369 -2.910856 10.114271 10579551
-8.4484291 -3.1465809 10.93334 10382428
-8.3940153 -3.1628489 10.989864 10513502
-8.3946543 -3.169261 11.012147 10447965
-7.7772231 -2.947665 10.242171 10316123
-7.5517392 -2.8678219 9.9647436 10382173
-7.5059481 -2.856039 9.9238005 10250586
-7.4271111 -2.83161 9.8389187 10382173
-7.1215529 -2.7204759 9.4527655 10645344
-7.9794502 -3.054229 10.612447 10645087
-8.2368021 -3.1715579 11.020125 10710880
-5.9785299 -2.895606 10.061283 10385538
-6.8422022 -3.3644481 11.690356 10923713
-3.5103819 -2.1876149 7.6012468 3618098
-3.471673 -2.1704841 7.5417209 3881011
-3.4258001 -2.1487479 7.466197 3946545
-4.302608 -2.7705619 9.6267977 3749183
-4.5392962 -3.034055 10.54235 4539739
-3.793129 -2.607384 9.0598059 7370880
-3.710161 -2.5778289 8.9571142 4673623
-3.845315 -2.681365 9.3168659 4212556
-1.421052 -1.031818 3.5852311 3552821
-2.205843 -1.670621 5.8048611 4143675
-2.354594 -1.790287 6.2206631 4078139
-2.3455861 -1.790475 6.221313 3946553
-1.897011 -1.752264 6.0885439 12171981
-1.87792 -2.2503541 7.819242 4143423
-1.893051 -2.2969389 7.981112 3222061
-2.1038101 -2.635303 9.1568174 4207671
-2.442414 -3.3644199 11.690261 2955547
-2.4257569 -3.365438 11.693795 3284257
-2.463335 -3.4422579 11.960721 3349791
-2.414665 -3.3987949 11.809702 4007463
-2.388391 -3.386452 11.766814 5125944
-2.355999 -3.3651869 11.692925 5849667
-1.952099 -3.1355181 10.894899 3157316
-1.929713 -3.12551 10.860124 6709883
-0.72120202 -2.821749 9.8046541 2493978
-0.66257501 -3.249543 11.2911 15394298
-0.436391 -2.4508941 8.5160532 14805246
-0.42448801 -2.455323 8.5314426 14214653
-0.47512501 -2.832912 9.8434439 13951481
-0.51225901 -3.2549541 11.3099 14215674
-0.495745 -3.256994 11.316988 14675962
0.72138703 -3.528554 12.26057 11454943
0.49484101 -2.360755 8.2028522 10861781
0.77378899 -3.602699 12.5182 10730451
0.79403901 -3.610101 12.543921 9941190
0.80994201 -3.597857 12.501376 9545661
0.82995999 -3.6040249 12.522808 8820396
0.842996 -3.5802729 12.440277 7635864
0.86310101 -3.58692 12.463375 6780038
0.875489 -3.561888 12.376393 7041667
0.88357699 -3.5207529 12.233464 6841714
0.85234702 -3.327775 11.562929 5657695
0.86184001 -3.298275 11.460426 5130833
0.92774302 -3.4153659 11.867279 3552059
0.92762703 -3.3511729 11.644232 3026228
0.95034802 -3.3703201 11.71076 2697520
2.989058 -3.050766 10.600414 852998
2.9861879 -3.0318429 10.534661 787204
2.5979719 -2.3871419 8.2945375 8149348
2.5729411 -2.352967 8.1757889 7427938
2.111176 -1.802851 6.2643161 14212078
4.3355541 -1.891054 6.5707951 7421475
3.7573321 -1.512666 5.256021 10643031
4.6818118 -1.8731591 6.508615 5055000
-8.3101549 -2.843683 9.9322062 6184273
-7.5512099 -2.6499369 9.2555046 8939867
-7.1224508 -2.5553851 8.9252596 9989985
-7.2602739 -2.6543119 9.2707853 10447965
-8.1056118 -2.969002 10.369911 10579294
-8.647295 -3.173455 11.084008 10645087
-8.623148 -3.170639 11.074173 10710623
-8.6147871 -3.1736269 11.084612 10710623
-8.7505465 -3.2298219 11.280884 10710880
-8.3917313 -3.109309 10.859966 10513501
-8.3095913 -3.0848131 10.774408 10316122
-7.8954992 -2.936753 10.257273 10381916
-7.8873372 -2.9393971 10.266509 10382172
-7.916328 -2.955925 10.324237 10382172
-7.875701 -2.946471 10.291218 10447966
-7.4695158 -2.7999511 9.7794628 10579551
-7.7403598 -2.9071391 10.153842 10513758
-7.4431272 -2.8174961 9.8407431 9592400
-7.037869 -2.6693411 9.3232784 9329228
-7.7701621 -2.9587481 10.334098 10645344
-8.5279112 -3.2666759 11.409604 10776674
-8.4648275 -3.624877 12.660703 10645344
-6.8846478 -3.2843449 11.471318 10450027
-6.4613099 -3.09005 10.792697 10318437
